-0.081411 -0.064040 0.337235 
0.023140 -0.073829 0.317490 
0.024676 -0.070074 -0.393327 
-0.214825 0.027033 0.242085 
-0.236084 -0.003242 -0.117447 
0.044273 0.096385 -0.116300 
-0.248849 0.003766 -0.217454 
0.089440 -0.088691 -0.202834 
-0.285851 0.002876 -0.158473 
-0.235777 0.014349 -0.279385 
0.037805 -0.101444 -0.043817 
-0.222219 -0.009763 0.194322 
-0.223403 0.005258 0.064565 
0.007584 -0.098025 0.052491 
-0.110610 -0.082126 -0.217027 
0.096575 0.078933 0.203828 
-0.233836 -0.014546 -0.366010 
-0.180545 -0.048512 0.395054 
0.150971 -0.061973 0.373024 
0.309869 0.001077 -0.409562 
-0.104305 0.084362 -0.192109 
-0.202542 0.043093 0.281349 
-0.226387 -0.025641 -0.326557 
0.246940 0.009863 0.390075 
-0.225186 -0.012725 0.208832 
0.095477 -0.075275 0.224435 
0.158237 -0.072757 0.228857 
0.082981 0.079084 -0.343770 
-0.248462 0.005684 0.367470 
-0.015667 0.079425 0.240119 
-0.225448 -0.013944 -0.409169 
-0.243686 0.007362 0.316190 
-0.148398 0.010009 -0.450071 
-0.147338 -0.067412 0.252106 
0.216168 -0.041036 -0.442875 
0.133152 -0.063912 0.324568 
-0.235455 0.028848 -0.426937 
0.098402 -0.002918 -0.447777 
-0.232753 -0.015057 -0.410853 
0.121931 0.069895 0.297989 
-0.192666 -0.039719 -0.425728 
0.228009 0.018960 0.348858 
-0.175143 -0.059437 0.344945 
0.229237 0.028140 0.123841 
-0.042956 0.014302 0.408011 
-0.154213 -0.066904 -0.336053 
-0.135897 0.080135 -0.163722 
0.251339 -0.038740 -0.427483 
-0.203172 -0.027648 0.205622 
0.251729 -0.007842 0.071389 
-0.153032 -0.076953 -0.173348 
0.097139 0.079623 0.154693 
-0.155863 -0.050145 0.159171 
0.186953 -0.062111 0.049536 
-0.055686 0.083954 -0.278092 
0.189149 -0.065264 0.174701 
-0.109312 0.005216 -0.448286 
-0.000852 -0.028863 -0.432851 
-0.045872 -0.032804 0.386750 
0.206681 -0.055080 0.099828 
-0.101235 -0.012215 0.422800 
0.163580 0.055732 -0.436449 
-0.220472 -0.030941 -0.123829 
-0.212141 -0.032947 -0.013713 
-0.169934 -0.060345 0.266379 
-0.037019 0.018913 0.404321 
-0.032472 -0.070396 0.340598 
0.160283 0.078718 -0.055781 
0.069929 -0.079848 0.113457 
0.010827 0.091137 -0.204663 
-0.120988 -0.059114 0.375195 
0.265328 -0.023886 -0.457932 
-0.087483 -0.070757 0.312651 
0.078096 -0.079783 0.103400 
0.056643 -0.079650 0.178914 
0.000914 -0.096903 -0.107889 
0.130801 0.068356 0.268606 
0.146879 -0.079402 0.064814 
-0.108300 -0.008044 -0.448425 
-0.039567 0.093777 -0.065823 
0.235803 -0.011234 0.328145 
0.252555 -0.012727 -0.469111 
0.130686 0.079281 0.070953 
0.192557 0.064637 -0.387730 
-0.199507 -0.030238 0.034210 
0.236952 -0.013504 0.074850 
0.103072 -0.069351 0.234827 
0.211669 -0.053467 0.381018 
0.126902 -0.067880 -0.372105 
-0.172205 -0.040608 0.099921 
0.100906 0.088403 0.045292 
-0.184852 0.050650 0.382776 
0.114210 -0.067766 0.364181 
0.265938 0.006774 0.425600 
0.198633 -0.069729 -0.231210 
0.154925 -0.070881 0.297246 
0.242106 -0.014633 0.374584 
-0.241402 0.006646 0.219539 
0.223742 -0.030953 0.126700 
0.286019 -0.001990 0.108383 
-0.227043 0.029580 -0.330232 
-0.094541 -0.077774 -0.326258 
0.222800 -0.019743 -0.458527 
0.116517 -0.085616 -0.177048 
-0.104496 0.081548 0.014928 
-0.034140 0.093755 0.004219 
0.148181 0.082422 -0.060061 
0.069400 0.082317 -0.292129 
-0.093590 0.084200 0.026749 
-0.036217 0.082326 0.175557 
0.139202 -0.077331 0.094841 
0.094867 -0.090829 -0.015246 
-0.016484 0.092517 -0.172174 
-0.243621 0.004231 0.209622 
0.159259 0.080074 -0.051987 
0.195227 -0.060830 -0.037828 
0.014587 -0.073628 -0.384630 
-0.161860 -0.055758 0.381949 
-0.170403 -0.048531 0.199961 
0.269363 0.003405 -0.300735 
-0.031865 -0.074749 0.289051 
-0.259354 0.005635 -0.200197 
-0.026356 -0.015965 0.400976 
0.168644 0.074967 -0.252338 
-0.081982 -0.083160 0.079425 
-0.179181 0.037753 0.100957 
-0.153925 -0.062362 0.071242 
0.249689 -0.009561 -0.017807 
0.245398 -0.005428 -0.083851 
-0.084254 -0.084979 -0.216391 
0.117627 -0.077195 -0.349866 
-0.107409 -0.064127 0.299521 
0.109097 0.083395 0.074977 
0.171616 -0.068203 -0.010158 
-0.048075 -0.091914 0.032520 
-0.077346 -0.069309 0.333398 
0.223765 0.056545 -0.371446 
0.250994 -0.024001 -0.366952 
-0.230184 -0.005139 -0.401757 
-0.204052 0.043709 0.374913 
0.067410 -0.095349 -0.037299 
-0.142606 -0.063968 0.207916 
0.171959 0.067810 0.135117 
0.067155 -0.078752 -0.382542 
0.251293 0.006412 0.217240 
0.167932 0.069999 0.147723 
0.233862 0.019391 0.375165 
0.242386 -0.004784 0.094038 
-0.011830 -0.079585 0.204347 
0.116372 -0.069644 -0.371216 
-0.037523 -0.042276 -0.430576 
-0.249118 0.005426 0.388000 
-0.183475 -0.035627 0.399572 
0.237636 -0.018577 0.256708 
-0.257566 0.001432 0.413175 
-0.088404 0.060742 0.360345 
0.129414 -0.063962 0.338812 
-0.242610 0.009617 -0.476704 
-0.062312 0.026579 -0.431864 
-0.184007 -0.069237 -0.153428 
-0.194324 -0.044585 0.376608 
0.186745 -0.018104 0.444843 
-0.043375 -0.019019 0.405538 
0.074143 0.005708 0.423091 
-0.023564 -0.079850 0.153427 
-0.077971 -0.020515 0.407237 
0.111418 0.089032 -0.143651 
0.276594 0.008328 -0.492141 
0.032810 -0.076496 0.266134 
0.115440 0.089643 -0.169143 
0.161811 -0.064128 0.211155 
-0.220549 0.030498 -0.075956 
0.230431 0.032415 -0.152704 
-0.100725 -0.085833 -0.158296 
-0.172810 -0.003110 -0.448961 
-0.175772 -0.057980 0.272640 
0.176099 -0.069788 -0.042195 
-0.030931 -0.079620 0.184555 
0.019492 -0.046076 0.354110 
-0.145688 0.065087 0.239163 
-0.236093 0.006238 -0.026441 
0.073794 -0.081478 0.085788 
-0.189227 -0.042724 0.386346 
-0.186054 -0.046669 0.264350 
0.038093 0.093353 0.110919 
0.141099 -0.085641 -0.085305 
0.220490 0.037688 0.350899 
0.197587 -0.024219 0.429323 
-0.003948 0.054252 0.325083 
-0.215321 -0.031927 -0.430107 
-0.135074 -0.070445 0.140125 
-0.187869 -0.018779 -0.441719 
-0.146807 -0.078511 -0.155333 
-0.207017 -0.017852 0.425209 
0.019345 -0.066256 0.307478 
-0.074924 0.086499 0.010219 
0.239753 -0.018064 0.381737 
0.194088 -0.063217 0.307499 
-0.128347 -0.072442 0.115239 
0.073049 -0.071158 -0.390078 
-0.103267 -0.034172 -0.432803 
0.089300 0.081966 -0.302353 
-0.125644 -0.063050 0.343994 
-0.278397 0.004844 -0.307527 
0.214331 0.047947 -0.037939 
0.279250 0.002371 -0.189597 
-0.012699 0.049633 0.352324 
-0.248588 -0.005734 0.312506 
-0.220489 0.009984 0.143590 
-0.241543 0.015944 -0.412703 
-0.252902 0.009713 -0.437230 
0.135151 0.082871 -0.206086 
0.037906 0.028451 -0.425344 
0.247807 -0.008960 -0.083811 
0.154973 -0.079826 -0.220205 
0.176168 -0.070874 -0.326874 
-0.026000 -0.033366 -0.432884 
-0.036106 -0.082354 0.078522 
0.241688 0.016734 -0.024603 
0.089398 0.083563 -0.271991 
-0.066341 -0.069465 0.286703 
-0.179189 -0.043116 -0.433010 
-0.115081 -0.082954 -0.187283 
0.106078 -0.093233 -0.100276 
-0.262627 -0.006198 0.445548 
0.158098 -0.017519 -0.456502 
0.145688 -0.084978 -0.096627 
-0.050933 -0.013380 0.405842 
-0.169388 0.072507 -0.019513 
-0.196173 -0.055852 -0.376379 
-0.082452 -0.078474 0.176016 
0.293255 0.000664 -0.171083 
0.106555 -0.082154 0.028989 
0.259989 0.021231 -0.404413 
0.172581 0.070601 0.001377 
0.137589 -0.081258 0.040393 
0.224626 -0.038344 0.157768 
0.168038 -0.068077 -0.344580 
0.157939 -0.027928 0.427664 
0.036456 0.015056 0.399904 
-0.151346 -0.065682 0.022469 
-0.137628 -0.069744 0.236197 
0.128847 -0.069220 0.354768 
-0.129630 0.081037 -0.025227 
0.096347 -0.087714 0.059084 
0.064206 -0.092324 -0.188129 
0.156661 -0.068600 0.349011 
0.045896 -0.057031 -0.418640 
0.142616 -0.069242 0.164596 
0.097846 -0.088130 -0.005727 
0.043183 -0.015568 0.397812 
-0.172939 -0.049692 0.341180 
0.150931 -0.081836 -0.064003 
-0.237330 -0.006231 0.448795 
-0.033078 0.078691 -0.338782 
-0.003441 -0.054500 0.335908 
-0.194649 0.059508 -0.112623 
-0.190584 0.061543 -0.339881 
-0.256747 0.000963 0.244112 
-0.009077 -0.018788 0.390543 
-0.211937 -0.043387 -0.121005 
-0.223857 -0.004339 0.444849 
0.278584 -0.004873 -0.122060 
-0.136503 0.051676 0.389200 
-0.086992 -0.088040 -0.180874 
0.234759 -0.020581 -0.025104 
-0.222620 -0.008507 0.288421 
0.057137 0.055630 0.365954 
0.015193 -0.097557 -0.151882 
0.165926 0.078165 -0.224308 
-0.132365 0.064939 0.258306 
-0.206272 -0.042204 -0.391135 
-0.051425 -0.052697 0.377390 
0.171697 -0.063847 0.293208 
0.175180 -0.049948 -0.429705 
0.096988 -0.092139 -0.111859 
0.196282 0.072940 -0.123089 
0.217980 -0.025581 -0.455087 
0.293966 0.000414 -0.183312 
0.153629 0.083325 -0.083897 
0.083307 -0.076894 0.231977 
-0.036054 0.093098 -0.151157 
-0.133112 0.070972 -0.337126 
0.167251 0.083323 -0.106719 
0.250263 -0.008641 -0.049220 
-0.241736 -0.004034 0.378956 
-0.103811 0.082236 -0.205482 
0.160700 -0.072985 -0.280543 
-0.115484 -0.083219 -0.205961 
0.196095 -0.055357 -0.402187 
0.210185 -0.056119 -0.065357 
0.269322 0.004847 0.113944 
-0.047481 -0.047565 -0.422836 
0.063235 -0.096263 -0.069374 
-0.154849 0.065944 -0.379219 
-0.136768 0.061115 0.334638 
0.250364 0.004869 -0.153457 
-0.247173 0.013984 -0.451236 
-0.153979 -0.069466 -0.305598 
-0.142584 0.074968 -0.248850 
0.111681 -0.066921 0.368106 
-0.059584 -0.091436 -0.075288 
0.272717 0.003634 0.418016 
0.156650 0.051268 0.385948 
-0.006806 -0.096429 -0.097202 
-0.109364 -0.067952 0.327731 
-0.022975 -0.095128 -0.052241 
0.248286 0.003108 -0.010222 
0.259340 -0.005362 -0.084767 
0.166893 0.070828 0.100689 
-0.138118 0.073421 -0.264853 
-0.108187 -0.080766 -0.037356 
-0.109227 -0.059075 0.375235 
0.108294 0.079043 0.165903 
0.249655 -0.009186 -0.125065 
0.251131 0.038386 -0.446044 
-0.273220 0.004050 -0.246278 
0.105042 -0.081182 0.039122 
-0.073497 -0.085530 -0.245388 
-0.096575 0.074860 -0.341096 
0.238074 0.009669 0.459537 
-0.238479 -0.004267 -0.013949 
-0.243333 -0.001844 0.113710 
-0.260379 -0.000292 0.282568 
0.125882 -0.058911 -0.420722 
0.224460 -0.034933 0.350592 
0.201347 0.056017 0.161147 
-0.025985 -0.083010 0.097880 
-0.168952 0.024911 0.427639 
0.175868 -0.063981 0.080822 
0.015397 -0.045626 0.343835 
0.260204 -0.029348 -0.436574 
0.178455 -0.057217 -0.424205 
-0.080941 -0.069056 0.209876 
-0.120419 -0.023802 -0.444034 
0.056670 -0.086400 -0.258715 
0.279490 0.002458 -0.286858 
0.182505 0.028106 0.423265 
0.182593 0.065558 -0.414711 
-0.196725 -0.041154 0.233366 
0.043320 -0.036281 0.384575 
-0.181505 0.070123 -0.089076 
0.172947 -0.069434 0.284185 
-0.065773 -0.086373 0.003483 
-0.224005 0.026937 -0.151035 
-0.034631 -0.083963 -0.289073 
-0.220465 -0.036073 -0.188389 
-0.288276 0.002838 -0.170361 
0.252162 0.002116 0.432801 
-0.080351 -0.077305 0.215584 
-0.150371 0.077753 -0.054033 
-0.210839 0.003909 0.454703 
0.229644 0.003140 0.472529 
-0.199591 -0.038316 0.353050 
-0.183661 0.059825 -0.368195 
-0.051154 0.055871 0.370030 
-0.128824 -0.066542 0.323532 
0.223060 -0.049212 -0.201421 
0.147095 -0.083503 -0.173863 
0.236550 0.021003 -0.010110 
-0.236558 -0.003333 0.012177 
0.042292 -0.081717 -0.324648 
0.143590 0.075211 -0.335789 
-0.248416 0.007952 -0.345796 
0.157949 -0.074608 0.176038 
0.205622 -0.045378 0.416139 
0.152924 -0.033548 0.420938 
-0.065004 0.012755 0.417690 
0.012141 -0.018886 -0.430868 
-0.080651 -0.068222 0.281349 
-0.224819 -0.004171 0.177926 
0.204718 0.065447 -0.334972 
-0.017090 0.087832 0.149201 
-0.224425 -0.003672 0.172545 
0.114983 0.011568 0.433336 
0.250479 -0.008836 0.045399 
-0.086779 -0.079004 0.079306 
0.238237 -0.016182 -0.071661 
-0.133377 -0.018838 -0.446796 
-0.019004 -0.037911 -0.431135 
0.051012 -0.020876 -0.434617 
-0.083707 0.084114 -0.238980 
-0.018796 -0.092891 0.108787 
0.214624 -0.045705 0.413999 
-0.073246 -0.031543 0.403347 
0.045509 -0.087355 0.156635 
-0.189739 -0.043443 0.291338 
0.259302 -0.002161 -0.224205 
-0.124327 -0.053762 0.366091 
-0.178092 -0.024950 0.159046 
0.140263 -0.029758 0.422135 
-0.025153 -0.078396 -0.371881 
-0.123181 0.035040 -0.436414 
-0.168923 -0.067427 -0.026261 
0.209811 0.052055 -0.034677 
-0.045855 -0.004812 0.408020 
0.156887 -0.074932 0.171793 
-0.227440 0.017599 -0.051721 
-0.211155 0.044404 -0.119337 
-0.231240 -0.008425 0.449717 
0.153641 -0.034927 -0.443400 
-0.034180 0.089600 -0.229792 
-0.052265 -0.089037 0.075651 
-0.229998 0.002775 0.350104 
-0.210447 0.002925 0.146546 
0.047443 -0.069407 0.273949 
0.051141 -0.079499 0.252726 
-0.221332 -0.038810 -0.270170 
-0.260811 -0.000294 0.394477 
0.171619 -0.073989 -0.040711 
0.201045 0.011648 0.444453 
-0.225372 0.031759 -0.301822 
0.222884 -0.043585 -0.440306 
-0.010934 -0.082715 0.128101 
-0.144073 -0.078462 -0.033853 
0.227081 -0.050347 -0.357650 
0.295502 -0.004670 -0.453034 
-0.214955 -0.030042 0.300206 
-0.211424 -0.018028 0.420194 
-0.097504 0.005199 -0.446498 
0.239986 0.047138 -0.418102 
-0.168912 -0.037959 -0.437893 
0.041972 0.074946 0.289658 
-0.149507 -0.008914 -0.443783 
-0.111714 0.002096 -0.445491 
0.208304 0.051111 0.386117 
0.113145 0.069181 0.290427 
-0.220622 -0.039402 -0.251329 
0.203321 0.068953 -0.198843 
0.200312 -0.060020 0.309674 
-0.066371 0.075457 -0.344350 
-0.088845 -0.057749 0.376673 
-0.052591 -0.046107 -0.429572 
-0.087612 -0.078440 0.145505 
0.127707 -0.079626 0.025146 
0.194716 -0.068621 -0.217485 
0.132603 0.074979 -0.377106 
-0.228374 -0.017754 -0.362230 
-0.238968 0.009175 0.313537 
0.063786 0.083473 0.153321 
0.017715 -0.095391 0.010368 
-0.156233 -0.077769 -0.110865 
-0.100402 0.083147 0.000522 
-0.179958 0.014471 -0.451169 
-0.140953 -0.054629 -0.393626 
-0.194630 -0.057360 -0.034717 
0.256492 0.006636 0.103459 
0.237670 0.048418 -0.398165 
-0.217016 0.014901 0.173184 
0.213901 -0.051541 0.217939 
-0.179277 -0.051961 0.216470 
-0.188867 -0.048358 -0.416329 
0.046973 -0.032793 0.391128 
0.155310 -0.070065 -0.375552 
0.185302 -0.071214 -0.232439 
-0.170813 0.055683 0.304588 
0.260522 -0.005059 -0.091321 
-0.057518 -0.071427 0.315760 
-0.232446 -0.008774 0.445130 
0.021434 0.009966 -0.432325 
0.128276 -0.015015 0.422471 
-0.156263 -0.066664 0.061425 
0.032466 0.032307 -0.422553 
-0.017079 0.085704 -0.268555 
-0.230753 0.003950 0.314930 
0.204421 0.053520 -0.001095 
0.276414 0.002753 -0.170113 
0.085321 0.087191 -0.207661 
-0.158273 0.074638 -0.200178 
-0.006846 0.084532 -0.300058 
0.236962 0.023249 0.396430 
-0.026697 -0.083686 0.205409 
0.215493 -0.023238 0.430180 
0.092731 -0.082374 -0.284310 
-0.268745 -0.003906 -0.074840 
0.128265 -0.076214 0.226932 
0.231986 -0.014355 -0.466313 
-0.040385 -0.045929 -0.428720 
-0.149718 0.078397 -0.062603 
-0.147256 -0.063769 0.219393 
0.057061 -0.088011 0.131962 
0.103102 -0.088208 -0.014868 
-0.193545 -0.048479 -0.402706 
-0.015616 0.093249 -0.187657 
0.005499 0.046535 -0.414611 
0.163797 -0.078551 -0.203953 
0.268589 -0.013458 -0.415578 
0.103171 -0.082213 0.032510 
0.277253 -0.002077 0.451285 
0.122469 -0.088751 -0.043129 
-0.249280 -0.003999 0.391223 
0.022577 -0.098547 0.039489 
0.250633 -0.014167 -0.195099 
-0.196653 -0.017031 0.429449 
-0.232191 -0.002397 0.034738 
0.173067 -0.061617 0.385333 
-0.169781 0.057760 0.068565 
-0.134682 -0.063938 0.288344 
0.106843 -0.078272 -0.322672 
0.034471 -0.076385 -0.391161 
0.150615 -0.043419 0.399857 
0.239031 0.014371 0.260926 
0.269950 0.003594 -0.146789 
-0.008616 -0.097159 0.045901 
-0.084866 -0.065951 0.300556 
0.261407 0.002573 -0.412775 
0.190326 -0.059880 0.333700 
-0.030586 -0.091705 0.037948 
0.105587 -0.084018 0.016150 
-0.259771 0.009188 -0.456422 
-0.251818 0.003845 0.268001 
0.284798 -0.003806 0.069979 
0.237589 -0.018971 0.118707 
0.240255 -0.008868 0.112738 
-0.016014 -0.054499 0.362381 
-0.008250 0.087342 -0.250015 
-0.155405 0.069111 0.049018 
0.205077 -0.061011 -0.376874 
-0.106075 -0.056579 -0.410347 
-0.052318 -0.049770 0.380890 
-0.103797 0.085516 -0.175571 
0.109490 -0.087585 -0.149815 
-0.210071 -0.037699 0.396874 
0.281073 -0.005972 -0.424177 
0.175800 -0.069917 0.185584 
0.144043 -0.068377 -0.360039 
-0.035606 -0.065213 0.321981 
-0.158672 -0.063715 -0.329375 
0.125575 0.071825 -0.405553 
-0.133979 0.060755 -0.414102 
-0.278450 0.003101 -0.215005 
-0.209257 0.045569 0.025056 
0.206905 0.051849 0.153191 
0.257766 -0.023021 -0.403274 
-0.100583 -0.064038 0.322289 
-0.212334 -0.008427 0.027997 
0.227595 0.046012 -0.258665 
0.015828 0.091872 0.131770 
0.298010 0.001273 -0.197722 
-0.156399 0.057735 0.310899 
-0.087490 0.089239 -0.061920 
0.090536 0.025213 0.413441 
-0.232531 0.027300 -0.442627 
-0.101145 -0.066107 0.149418 
0.214883 -0.042706 0.029728 
-0.141662 -0.074816 0.022716 
0.011718 -0.086477 -0.273897 
0.141546 0.074526 -0.372459 
0.214120 -0.050943 0.265825 
0.154492 -0.078730 -0.023650 
-0.088351 -0.071398 0.302255 
0.219514 0.001921 0.306896 
-0.223003 -0.019944 0.344064 
-0.197715 -0.037391 0.296169 
-0.168113 -0.051513 0.221877 
0.118657 -0.083179 -0.256539 
0.284242 0.000287 0.113862 
-0.194174 0.061167 -0.261794 
0.014103 -0.092373 -0.220118 
-0.197298 -0.058046 -0.236401 
-0.212598 -0.036906 0.383309 
-0.083938 -0.088952 -0.048101 
-0.140105 0.079937 -0.037829 
-0.162806 -0.047008 0.087118 
0.061909 -0.095807 -0.105229 
0.283690 -0.004755 -0.057390 
0.192618 0.069722 -0.265442 
0.221872 -0.040187 0.299967 
0.231983 -0.017461 0.091026 
-0.118172 -0.082792 -0.181214 
0.183854 0.013427 0.440923 
0.245222 0.000292 0.112782 
-0.199922 0.057591 0.018484 
-0.225610 0.003693 0.200615 
-0.098977 -0.059018 0.375012 
0.184506 0.074611 -0.080284 
0.163791 0.069748 -0.396138 
-0.156475 0.079327 -0.130400 
0.281831 -0.004742 -0.362483 
0.104015 -0.063959 0.361829 
-0.210862 -0.023643 0.247245 
-0.018339 0.073766 -0.378068 
0.226085 -0.004570 -0.474047 
-0.000384 0.085493 0.193061 
0.160117 0.011290 -0.459846 
-0.063682 0.087381 -0.179270 
0.229309 -0.021407 0.077307 
-0.197538 -0.058071 -0.232237 
-0.141843 0.042043 -0.432325 
-0.023847 -0.084834 0.195113 
0.143873 -0.063898 0.286431 
-0.095548 -0.074781 0.094131 
-0.224985 -0.017161 0.381919 
0.232810 -0.027678 0.237918 
-0.218192 0.015620 0.436838 
0.152825 0.070397 0.201011 
-0.215693 0.013803 0.441148 
-0.249019 -0.003606 0.470694 
-0.215978 -0.011712 0.025826 
0.054481 -0.078341 0.239975 
-0.180294 -0.072290 -0.122068 
0.262251 -0.008834 -0.213505 
0.166591 0.015200 0.441523 
0.006222 0.060668 0.312880 
0.015086 -0.094093 0.125173 
-0.092474 -0.087896 -0.055036 
-0.072096 0.087758 -0.012930 
0.070616 -0.057560 0.373883 
-0.215197 -0.007526 0.018654 
-0.076891 0.071046 0.248267 
0.228176 0.029793 0.095036 
-0.202461 0.056125 -0.305345 
-0.202738 0.056027 -0.332729 
-0.242896 -0.004651 0.356129 
-0.236663 -0.013463 -0.318837 
-0.058039 -0.070880 0.279476 
0.268053 -0.009889 -0.396949 
0.237384 -0.018097 0.429541 
0.008256 0.087056 0.167872 
-0.146917 -0.063824 0.204949 
-0.187085 -0.045991 0.289171 
-0.293993 0.005334 -0.299843 
0.267465 -0.007110 -0.228329 
0.228787 0.035943 -0.164293 
0.227644 -0.026895 0.281802 
-0.143193 0.065780 0.212566 
0.111154 -0.063983 0.329344 
0.096268 -0.092408 -0.072806 
-0.190884 -0.040578 0.246877 
0.180328 0.068824 -0.025792 
-0.016402 0.093079 0.111634 
-0.059981 -0.092843 -0.056488 
-0.113736 0.065342 -0.407521 
0.103609 0.084286 0.094520 
-0.241019 -0.002162 -0.155662 
0.071880 -0.080827 -0.319486 
0.001350 -0.096924 0.080913 
-0.151589 -0.041774 -0.424691 
0.164830 -0.077032 -0.079342 
-0.200239 -0.054992 -0.255233 
-0.142889 -0.064298 -0.320554 
0.187162 -0.063294 -0.397204 
0.034002 0.023011 0.385422 
-0.155048 0.079508 -0.138026 
0.116143 0.078689 0.124042 
-0.014758 -0.097797 -0.045263 
-0.131184 -0.058484 -0.416740 
-0.067027 0.079093 0.162334 
-0.268047 0.013124 -0.493954 
-0.099233 -0.049023 0.390152 
-0.174087 -0.050541 0.289945 
0.149821 -0.054997 0.381787 
0.248098 0.005662 -0.079120 
0.259498 -0.012631 0.466462 
0.079445 -0.087503 -0.211797 
0.258348 -0.006687 0.183331 
-0.133832 -0.067306 0.300953 
0.024503 0.094086 0.119793 
-0.204436 -0.031347 0.329069 
-0.082676 -0.078970 0.152992 
-0.242119 0.000308 0.461477 
0.222356 0.009722 -0.478557 
0.014055 0.096491 0.022963 
-0.174662 -0.041800 0.171243 
0.020373 -0.070608 -0.391661 
0.000166 0.018648 0.389003 
0.014947 0.079773 0.260700 
0.193430 -0.049545 0.387566 
-0.175254 0.039852 0.095075 
0.008070 -0.079741 0.193473 
-0.063854 0.062380 0.348257 
0.217346 -0.045775 0.227604 
-0.057727 -0.079554 0.221497 
-0.085470 -0.078379 -0.334838 
0.052785 -0.066826 0.290204 
0.104274 -0.079716 0.064787 
0.035175 -0.097129 0.059532 
0.209778 0.048576 0.193060 
-0.123804 -0.064230 0.187081 
0.291394 -0.004611 -0.259432 
0.205020 -0.048884 0.098607 
0.206702 -0.065595 -0.323805 
-0.002710 -0.095561 -0.148731 
0.010841 -0.096165 -0.144237 
-0.209764 -0.043373 -0.050355 
-0.096505 -0.064084 0.321191 
-0.082722 -0.036912 -0.436837 
-0.151239 -0.064739 0.299977 
-0.002888 0.009694 0.394590 
0.117146 -0.073712 0.282779 
0.183266 -0.067779 0.113898 
-0.013781 -0.097283 -0.121087 
-0.233926 -0.006844 -0.119706 
0.117286 -0.086241 0.023427 
0.225186 0.032931 0.243189 
-0.081347 -0.089718 -0.062061 
-0.189983 0.015921 0.441331 
0.084772 0.093716 0.007957 
0.092088 0.075920 -0.375044 
0.219960 -0.030268 0.436689 
0.238768 -0.019766 -0.126382 
0.080990 -0.077724 0.256336 
-0.197856 -0.061113 -0.175802 
0.279099 0.003888 0.085669 
0.118023 0.087398 -0.029725 
0.098085 -0.085367 0.017218 
0.255293 -0.005984 -0.405725 
0.163383 0.070421 0.163930 
0.108629 0.082675 -0.245903 
0.184801 -0.067949 -0.072602 
-0.201662 0.001746 -0.452718 
-0.209773 -0.025393 0.343180 
0.249501 0.010137 -0.063535 
-0.207499 -0.030312 0.418369 
0.152059 -0.040427 0.403591 
-0.129128 -0.003328 -0.445217 
-0.107461 -0.048548 0.380455 
0.163075 -0.074970 0.081220 
0.071817 0.089048 0.099449 
0.143627 -0.078020 0.154778 
0.028597 -0.064332 0.323616 
0.198458 -0.060165 -0.002174 
0.105081 -0.073214 0.296640 
-0.105816 -0.050680 -0.427538 
0.131475 -0.078463 0.176075 
0.148619 -0.065115 0.223060 
0.243558 -0.008972 0.332106 
-0.257977 0.000996 0.294881 
-0.076340 -0.085036 0.001600 
0.011003 -0.079391 -0.355749 
0.103354 0.093364 -0.069237 
-0.136259 -0.063842 0.152547 
-0.128688 0.079056 -0.197745 
0.043675 -0.008032 0.411355 
0.173547 -0.067298 -0.006354 
0.132766 -0.081885 -0.023671 
0.230855 0.017417 0.363052 
-0.096026 0.079573 0.093883 
-0.123005 0.074083 0.085585 
0.202142 0.059872 -0.419409 
0.236880 -0.019928 0.169707 
0.149388 0.083543 -0.170196 
0.294030 0.001708 -0.085691 
-0.193275 -0.052703 0.008392 
0.081730 -0.035671 0.399399 
-0.267010 -0.003424 0.427871 
-0.295513 0.003132 -0.249097 
0.127279 0.069348 0.259315 
-0.111864 -0.044650 0.390583 
-0.181461 -0.029549 0.161160 
-0.078559 -0.069692 0.328460 
0.165876 0.013590 -0.459361 
0.049605 -0.073726 -0.399113 
-0.192963 0.062606 -0.074618 
0.036394 0.080140 -0.350429 
0.233687 -0.041481 -0.259999 
0.173602 -0.073790 -0.084467 
-0.165711 0.038478 0.409694 
-0.229848 0.011275 0.295556 
-0.115350 -0.058950 0.375541 
-0.269842 0.004953 -0.164101 
-0.050154 0.013961 0.410757 
-0.043932 0.091656 -0.075191 
-0.016054 -0.087023 0.095996 
-0.236769 0.005416 -0.043849 
-0.155435 0.064076 0.095836 
-0.215919 0.021731 0.208708 
-0.153389 -0.065558 0.018475 
-0.161379 -0.073444 -0.196767 
-0.030868 -0.013213 0.404264 
0.209520 -0.046152 0.092615 
-0.171318 -0.069278 -0.223927 
-0.004404 -0.095212 0.000446 
0.184183 -0.067635 0.057550 
-0.195436 0.001280 0.452801 
0.256667 -0.033607 -0.435535 
0.107393 -0.067750 -0.392469 
0.258120 -0.012338 -0.469737 
-0.086286 -0.042308 -0.427536 
-0.225283 -0.033269 -0.340809 
-0.057328 0.083318 -0.265540 
0.248425 0.009576 0.394545 
0.148987 -0.077267 0.148603 
0.093154 -0.091014 -0.135328 
0.223730 0.006569 0.465773 
-0.177929 -0.054621 0.238510 
0.041661 -0.091665 0.117686 
0.181833 -0.068181 -0.303291 
0.232340 -0.027322 0.380130 
-0.144375 -0.063756 0.262528 
-0.183189 -0.069386 -0.163118 
0.207787 -0.050457 0.235527 
-0.198876 -0.039935 0.237096 
-0.156784 -0.068779 -0.308703 
-0.073761 -0.083138 0.107010 
-0.090713 -0.083482 -0.251546 
-0.113156 -0.085471 -0.076740 
0.249248 -0.017145 0.413848 
0.228824 -0.033451 0.192033 
-0.223920 0.019736 0.398468 
-0.058937 -0.075893 0.232513 
0.003048 -0.008229 0.395081 
0.152581 0.082343 -0.070973 
-0.040975 0.023307 0.402069 
0.117655 0.056845 -0.424815 
-0.165446 -0.069691 -0.044675 
0.296820 -0.002836 -0.236563 
-0.047324 -0.084019 0.040811 
0.221343 0.003244 -0.474587 
-0.155623 0.076094 -0.015890 
-0.006391 -0.000871 0.400027 
0.267618 -0.004240 0.163669 
-0.153461 0.064350 -0.387370 
-0.000605 0.092751 -0.185988 
0.061866 0.095817 -0.071370 
0.018982 -0.050107 -0.421982 
-0.244541 -0.004954 0.344755 
-0.197787 -0.032114 -0.441170 
0.167917 -0.050626 0.391050 
0.177979 0.058712 -0.434919 
0.065599 0.010207 0.414028 
0.237395 -0.022700 -0.116710 
-0.204786 -0.039741 0.278944 
0.268695 0.004141 0.476130 
0.276659 -0.008159 -0.422544 
0.243587 0.007294 0.388528 
0.179730 0.072626 -0.059936 
0.240309 0.012371 0.452547 
0.275005 0.005009 -0.401042 
-0.188428 -0.063907 -0.065380 
0.187850 -0.061807 0.301847 
-0.218813 0.006822 0.080547 
-0.034747 0.088051 -0.224005 
0.170987 -0.064031 0.152171 
0.014357 0.068979 0.299492 
0.177257 0.081421 -0.172772 
0.187128 0.062947 0.088407 
-0.202692 -0.043843 0.308059 
0.104857 0.079141 0.174485 
0.183496 -0.024476 0.427119 
0.087008 -0.079713 0.106563 
0.235215 -0.013541 0.342242 
-0.214340 0.015322 0.150876 
0.034575 0.039835 -0.418032 
0.235501 0.036555 -0.455052 
0.269164 0.002643 -0.190356 
0.239865 0.005198 0.338661 
0.248205 0.003500 -0.064296 
0.007201 -0.036795 -0.430536 
0.236815 -0.013441 0.240464 
0.165186 0.009130 -0.462215 
-0.119251 -0.072795 0.219269 
-0.168240 -0.073535 -0.143924 
-0.178499 0.058541 0.052439 
0.199561 0.001203 0.451290 
0.099011 0.079315 0.187000 
0.038633 0.095277 0.029157 
0.114276 -0.088004 0.009247 
-0.095446 -0.018813 0.413806 
0.189128 -0.073835 -0.133198 
0.015402 0.073680 0.283879 
-0.233539 0.011527 -0.226013 
-0.051535 0.080139 0.182059 
0.227757 0.030104 0.112154 
-0.017286 0.083830 -0.304409 
-0.211746 0.037914 0.335081 
0.254130 -0.007878 0.143505 
-0.171262 -0.018461 0.427569 
-0.225120 -0.031998 -0.296403 
0.023874 -0.022893 0.389827 
-0.049286 0.075945 -0.368443 
-0.162561 -0.055507 0.257164 
-0.040293 -0.079686 0.237041 
0.208924 0.028393 -0.456007 
-0.215885 0.014325 0.155677 
0.243687 -0.011427 0.412070 
-0.151051 -0.077875 -0.044459 
-0.075660 0.059928 0.357732 
-0.090079 0.089608 -0.107899 
-0.184647 0.065074 -0.255669 
0.035740 -0.017118 -0.431824 
-0.017009 0.065369 0.313756 
0.106781 -0.088766 0.019846 
-0.069705 -0.089391 -0.122041 
-0.187927 -0.045167 0.272735 
0.162758 -0.073217 0.185863 
-0.139907 0.072092 -0.278980 
-0.169551 -0.041280 0.406640 
-0.147580 -0.069227 -0.321554 
-0.234499 -0.017918 -0.287989 
0.237278 -0.037307 -0.261796 
-0.191110 -0.020016 0.089234 
-0.226004 -0.004318 -0.459695 
-0.126988 -0.026384 0.421673 
0.018658 -0.054660 0.337744 
-0.105246 -0.074995 0.202102 
0.092082 0.091017 -0.141828 
-0.004070 0.079399 -0.353412 
0.022123 -0.067796 0.296122 
0.196755 -0.034294 0.417783 
-0.227453 0.013631 0.223988 
0.117198 0.030427 0.412511 
0.062805 -0.083736 -0.320455 
0.190356 -0.069842 -0.299905 
-0.246685 0.005935 0.283922 
-0.238638 -0.007134 -0.203633 
-0.092640 0.082058 0.042185 
0.197564 0.070004 -0.227642 
0.080315 0.083668 -0.281810 
0.196839 -0.059401 -0.394026 
0.190791 -0.007825 -0.462057 
0.167515 -0.065657 0.039903 
0.043891 0.075903 -0.377328 
0.264872 -0.003337 -0.382619 
0.019044 -0.002850 -0.437340 
-0.048244 -0.079758 -0.375434 
0.148778 -0.037399 0.405309 
-0.210694 -0.023439 0.242723 
0.129864 -0.030170 -0.446158 
0.168666 0.073191 -0.295713 
-0.205324 -0.028811 0.248954 
0.146998 -0.063977 0.358001 
0.234062 -0.023774 0.139398 
-0.214975 0.041833 -0.244457 
0.173202 0.013213 0.440375 
0.115664 0.085426 -0.225177 
0.038405 0.079607 -0.354145 
-0.071335 -0.081379 0.034246 
-0.055273 0.063280 -0.406301 
0.103579 -0.070141 -0.407149 
-0.216893 -0.022936 0.222459 
-0.071961 -0.090577 -0.032715 
-0.228049 -0.004204 0.181158 
0.130403 -0.071350 0.316427 
0.077422 0.075728 0.252151 
-0.245713 0.005230 -0.125443 
0.022300 -0.076900 0.296067 
0.256671 0.006326 -0.088654 
-0.001225 0.084347 -0.303643 
0.121930 -0.085411 0.020884 
0.085825 -0.067366 0.361056 
0.215402 -0.044410 0.209736 
0.085293 0.074236 0.259082 
0.091763 0.093401 -0.125343 
-0.172854 -0.048493 0.380816 
-0.064341 0.088347 0.039989 
0.061440 -0.062518 0.356530 
-0.052930 -0.062297 0.365206 
-0.077030 -0.076674 0.134308 
-0.174118 -0.049382 0.045385 
0.244801 -0.003847 -0.001726 
0.281003 -0.005006 -0.295768 
-0.063547 -0.065196 -0.396067 
0.020511 -0.036465 0.365734 
-0.039138 -0.049498 -0.426474 
-0.123113 0.065420 0.293040 
-0.122979 -0.077817 -0.012454 
-0.121737 -0.064056 0.300839 
-0.170442 -0.020327 0.422801 
0.200064 -0.052205 0.091232 
-0.155599 -0.049457 -0.409069 
-0.075766 -0.069689 -0.401819 
-0.211123 0.045674 -0.191247 
-0.255621 -0.004367 0.002705 
0.222481 0.035840 0.108101 
0.282696 -0.005327 -0.279307 
0.112219 -0.087220 -0.189881 
-0.241085 -0.002331 -0.182793 
0.077353 0.059181 0.366528 
0.232879 0.023723 0.238989 
0.192098 -0.066843 -0.310886 
0.210733 -0.007000 -0.469394 
-0.197738 -0.021662 0.062694 
-0.041035 -0.064265 0.334596 
-0.220708 0.033781 -0.258332 
0.150644 -0.049694 -0.431846 
0.257312 0.010326 -0.237075 
0.085934 0.032285 0.403169 
-0.211573 0.020268 0.075432 
0.109589 -0.018215 0.425473 
0.204885 -0.066635 -0.290251 
0.177951 0.070189 -0.370126 
-0.262244 -0.006392 0.381946 
0.217472 0.041171 0.108926 
0.219817 -0.042181 0.339309 
-0.180478 -0.070505 -0.048448 
-0.138068 -0.068211 0.020662 
-0.202284 0.024354 0.153503 
0.116486 -0.052371 0.391346 
0.099702 0.077455 -0.352725 
0.073640 -0.024607 0.399315 
-0.182885 -0.064570 -0.041023 
0.009973 -0.079095 0.245272 
-0.150229 -0.054533 -0.422620 
-0.030541 -0.053058 0.372378 
0.165694 -0.072483 0.189296 
-0.188122 -0.048535 -0.402620 
0.087932 0.083149 0.123389 
0.196297 -0.061053 0.365113 
0.119209 -0.090893 -0.088955 
0.273954 0.002777 -0.283327 
0.110359 -0.084868 0.091736 
-0.215964 -0.041109 -0.154825 
-0.154686 -0.063802 0.032385 
-0.233282 -0.006719 -0.361742 
0.183474 -0.067536 0.199808 
-0.032343 0.054533 0.366755 
0.099184 -0.090938 -0.028166 
0.130183 -0.034811 0.414680 
-0.223953 -0.013558 -0.055392 
-0.264862 -0.002563 0.395846 
0.187520 -0.066309 0.273026 
0.073141 -0.098177 -0.062598 
0.211731 -0.048324 0.400383 
0.123733 -0.083900 0.039040 
-0.054247 0.054707 0.372976 
-0.235423 0.009826 -0.449981 
-0.161015 -0.063547 0.261142 
0.169314 -0.072287 -0.043776 
0.289867 -0.002816 -0.107437 
0.244663 -0.011303 0.125751 
0.009169 -0.090331 0.154948 
0.099675 -0.078021 0.205136 
-0.110202 -0.074713 0.185399 
0.049592 0.093228 0.090023 
0.071140 -0.076677 0.269558 
-0.055259 0.088134 0.038044 
-0.172353 -0.057370 0.230383 
-0.009009 -0.084484 -0.330380 
0.199947 0.071294 -0.150288 
-0.216796 0.028178 0.323951 
-0.208640 -0.027943 0.361650 
0.235875 -0.023239 0.036124 
-0.197263 -0.010435 0.074756 
0.176683 -0.073401 -0.222038 
0.173787 -0.078738 -0.116557 
0.023441 0.081635 0.245583 
0.114615 -0.064483 0.287852 
0.059064 0.096345 -0.103848 
-0.203656 0.046699 0.312034 
0.061726 -0.007300 -0.433726 
-0.104904 0.001056 -0.448575 
-0.201243 0.055389 -0.212602 
-0.179288 0.070001 0.015379 
-0.136350 -0.069670 0.247092 
0.240191 0.013521 0.127720 
-0.256701 0.005625 -0.165550 
-0.051790 -0.090864 -0.027640 
0.007020 0.039890 0.350598 
-0.184261 0.052357 0.053379 
-0.143117 0.065146 0.243267 
0.150908 -0.067439 0.364085 
-0.206374 -0.050367 -0.291145 
-0.049119 -0.091693 -0.125029 
-0.090360 -0.071455 -0.390475 
-0.007357 -0.095069 0.003349 
-0.027764 0.087355 -0.241375 
0.234567 0.026698 -0.117971 
-0.022513 -0.090260 0.134564 
-0.194682 0.059970 -0.339519 
-0.081984 -0.078035 0.203263 
-0.108753 -0.072690 0.247450 
-0.189607 -0.066250 -0.225861 
0.185790 0.060918 0.335812 
-0.096233 -0.084304 -0.231079 
0.012580 -0.091226 0.146903 
-0.083395 0.074330 0.196687 
0.137482 -0.005107 0.433307 
-0.047642 -0.067821 -0.391104 
-0.102565 0.068902 -0.381209 
-0.002116 -0.064778 -0.406063 
-0.107747 -0.075838 -0.327144 
0.182541 0.070210 -0.360005 
-0.133861 -0.064852 -0.391355 
0.245719 0.011917 0.431307 
0.272898 -0.004756 0.025434 
0.277506 0.004509 -0.442038 
0.050401 0.095913 0.029806 
-0.176093 -0.071079 -0.176885 
0.186317 0.070011 -0.314193 
0.051598 0.079389 0.256869 
0.297149 -0.003869 -0.257243 
-0.103812 -0.064434 0.276891 
-0.064202 -0.017598 0.412558 
0.124065 0.068954 0.275311 
0.283449 -0.002071 -0.480961 
0.166089 -0.073791 0.025552 
-0.197441 -0.008520 0.079809 
-0.123106 -0.065910 -0.329463 
0.155126 0.076048 -0.009597 
-0.145765 -0.067696 0.111753 
0.285712 -0.004702 -0.060993 
-0.146164 0.009929 0.441656 
0.260156 -0.006154 -0.055968 
-0.076952 -0.037817 -0.431461 
-0.166040 -0.003977 0.447207 
0.252581 0.028365 -0.371379 
0.296942 -0.003261 0.006728 
-0.225483 -0.014033 -0.051211 
-0.005639 -0.086712 0.116703 
-0.272456 0.005727 -0.275258 
0.203898 0.050080 0.389153 
-0.047250 0.093199 -0.083253 
0.208469 0.049908 0.019131 
0.276043 0.003452 -0.338360 
0.087998 -0.064075 0.349017 
-0.018030 0.065591 0.328914 
-0.121777 -0.073237 0.187902 
-0.154644 0.078316 -0.142662 
-0.145532 -0.058745 0.336239 
0.186169 0.065172 -0.004344 
0.205290 0.053249 0.036028 
-0.032506 -0.013193 -0.433207 
-0.211469 -0.015814 0.188651 
0.128378 0.028028 -0.442786 
-0.159118 -0.056038 0.076665 
0.113210 -0.032085 0.412988 
-0.152026 -0.055371 0.337148 
0.275660 0.004139 -0.032876 
0.081784 0.064053 0.345129 
-0.223678 -0.004140 0.039504 
-0.168583 0.046409 0.398701 
-0.065396 -0.032335 0.391692 
0.246236 -0.027063 -0.263653 
0.225193 -0.040124 -0.443972 
0.125862 -0.082865 -0.219497 
0.263918 0.004330 -0.340054 
-0.086782 -0.088022 -0.033509 
-0.137466 -0.017977 -0.447449 
0.238079 0.018873 0.176143 
0.033234 -0.096820 -0.126262 
-0.030459 -0.092750 0.076639 
-0.133552 0.065735 -0.405501 
-0.232736 -0.017394 -0.362417 
0.200823 -0.051328 0.352150 
-0.276399 0.013075 -0.496356 
0.169808 0.080715 -0.204818 
-0.226028 -0.005365 0.227430 
-0.239440 0.008666 0.288104 
-0.095792 -0.074137 0.106661 
-0.057158 -0.083929 0.143151 
0.228303 0.007003 0.465844 
0.125646 -0.073485 0.278992 
0.279146 0.004001 -0.035241 
0.204143 0.063480 -0.081132 
-0.014396 -0.004844 0.394768 
-0.094886 -0.033249 -0.434170 
0.221640 -0.039953 0.325461 
0.064105 0.069490 0.315371 
0.159404 -0.068937 0.339631 
-0.123157 -0.077588 -0.007580 
0.209225 -0.053201 0.162613 
0.086209 -0.083014 -0.283488 
-0.108388 0.070903 0.215032 
-0.239486 -0.004010 0.387965 
0.047510 -0.088652 0.138668 
-0.163336 -0.051066 0.342507 
-0.100770 -0.070246 0.102778 
-0.142944 -0.021928 -0.446119 
-0.191047 -0.012897 0.445559 
-0.217193 0.006406 0.096309 
0.218159 0.050562 -0.112592 
0.139912 0.074015 -0.330401 
-0.108276 -0.071513 0.275916 
-0.179020 0.070816 -0.115825 
-0.073838 0.079737 -0.293051 
0.195965 -0.061969 0.054488 
-0.192354 -0.049900 0.018624 
-0.192578 -0.026649 -0.439036 
0.226508 -0.032747 0.365943 
-0.258506 0.010714 -0.436647 
0.097113 -0.078231 0.236976 
-0.049715 -0.066633 0.313202 
-0.086869 0.088244 -0.030934 
0.238528 0.048181 -0.432378 
0.228758 -0.032505 0.020340 
-0.084983 -0.055818 0.379045 
-0.154633 0.074456 -0.224002 
-0.161355 -0.076422 -0.052965 
-0.160874 -0.055633 -0.363907 
-0.197729 -0.046333 -0.427740 
0.076028 0.084069 -0.279837 
-0.160729 0.056175 0.112818 
0.067388 -0.040184 0.379285 
0.267791 -0.022602 -0.454457 
-0.003473 0.093245 -0.197383 
-0.170513 -0.060292 0.335184 
0.214644 -0.048110 0.017507 
0.200958 -0.059960 0.340704 
0.140769 -0.067252 0.184503 
0.199144 -0.059536 0.154950 
0.160417 -0.063966 0.275307 
0.163647 -0.080568 -0.098270 
0.217480 0.041743 0.083557 
0.011447 0.087285 0.165440 
-0.263867 -0.002224 0.329765 
-0.161612 -0.064897 0.050454 
-0.183757 0.039252 0.168257 
-0.195272 -0.038036 0.260299 
0.291842 0.002893 0.012977 
0.224009 -0.005839 -0.467367 
0.074013 -0.067163 -0.401438 
0.241099 0.012867 0.196841 
-0.230636 -0.002184 0.089936 
-0.146525 -0.064115 0.053074 
-0.122629 0.068277 -0.369820 
-0.219308 0.013729 -0.450343 
0.167147 -0.073712 0.053442 
0.252220 -0.032146 -0.437296 
-0.075660 -0.078769 0.204216 
0.079260 -0.064279 0.317910 
-0.020141 -0.071622 0.326319 
0.188388 -0.038204 0.413300 
0.262493 0.005186 -0.091792 
-0.239466 0.014181 -0.375892 
-0.123419 -0.064853 0.099063 
-0.133367 -0.004091 0.433835 
0.041930 0.078057 -0.356469 
-0.215593 -0.017179 -0.450623 
-0.164717 -0.028449 -0.443589 
0.203572 0.055681 0.317805 
0.034327 0.036388 0.368097 
0.022519 0.018441 0.390515 
0.037852 0.013313 -0.431039 
0.242803 -0.013670 0.088145 
-0.149067 0.078872 -0.153805 
-0.218461 -0.034943 -0.110230 
-0.093280 -0.066667 0.274390 
0.225089 0.006922 -0.481856 
0.142116 -0.069242 0.350310 
0.145266 -0.073862 -0.345006 
0.148008 0.074138 0.094229 
0.080116 -0.089109 0.078655 
0.134188 -0.057992 0.378273 
-0.244690 0.002169 -0.068725 
-0.023839 0.055997 -0.409268 
-0.261978 0.004417 -0.239933 
0.172606 0.069875 0.034815 
0.017569 0.091581 -0.199845 
-0.116597 -0.045064 -0.432134 
0.121152 0.065563 -0.420452 
0.171528 -0.076277 -0.073395 
-0.036484 -0.087010 -0.250092 
0.073652 -0.080059 0.103859 
0.116599 -0.079018 0.193824 
-0.125956 -0.067919 0.308134 
-0.103334 -0.045758 0.394675 
-0.243751 0.007250 0.310690 
-0.231744 -0.002719 0.131079 
-0.229213 0.000158 -0.451490 
0.227913 -0.056714 -0.401521 
-0.148313 -0.069297 0.068595 
0.244193 0.013983 -0.162054 
0.136027 -0.075566 0.225272 
-0.017161 0.089157 0.138307 
0.290254 -0.003631 -0.408714 
0.251706 0.007698 0.102798 
0.010936 -0.057339 0.342787 
-0.057721 0.074273 0.257428 
0.025208 -0.087229 -0.263531 
-0.022377 -0.095250 -0.058375 
-0.133727 0.065736 0.154546 
0.204659 -0.056382 0.165742 
0.297635 -0.004045 -0.289380 
-0.165649 -0.061996 0.280932 
-0.241416 -0.006402 0.264551 
0.074626 0.065148 0.337861 
0.025276 -0.008489 -0.437786 
-0.001808 -0.092081 0.099875 
-0.225838 0.023270 -0.014791 
0.004577 -0.096200 -0.004054 
-0.214552 0.014180 0.109391 
0.084754 0.083323 -0.282254 
0.236163 0.020952 0.001838 
-0.191690 0.062189 -0.310960 
0.280540 -0.005075 -0.002937 
-0.271803 0.005527 -0.343008 
-0.177396 -0.004295 -0.448522 
-0.030462 0.081055 -0.312119 
0.179926 -0.063768 0.276887 
-0.123711 0.017746 -0.445087 
-0.259933 -0.006579 0.350001 
-0.126121 -0.075582 -0.277478 
0.016800 0.081065 0.230901 
-0.222114 0.031383 -0.251740 
0.234523 -0.009473 0.468030 
0.283255 0.004014 -0.027960 
-0.240906 -0.006626 -0.210158 
0.073999 -0.095281 -0.053088 
-0.164636 -0.006487 -0.453963 
0.148215 -0.078949 0.060263 
-0.050854 0.080998 0.160942 
-0.217987 -0.004279 0.062497 
0.156893 -0.005427 0.448105 
-0.042364 -0.023652 -0.436943 
0.163307 0.073610 -0.275557 
-0.153233 -0.052233 0.137960 
-0.165313 -0.054315 0.082796 
0.025986 0.085612 0.175984 
-0.055031 0.090501 -0.016765 
-0.004860 -0.056136 0.349667 
-0.214701 -0.030074 0.294040 
0.213748 0.059745 -0.226985 
0.240233 -0.010972 0.015702 
-0.230861 0.009032 0.338127 
-0.229329 -0.011732 0.408652 
0.115605 -0.076723 -0.362671 
0.185154 -0.061726 -0.405225 
0.165414 -0.079137 -0.192424 
0.189829 0.071504 -0.074523 
0.179246 -0.065942 0.351414 
0.119343 -0.073130 0.290273 
-0.237743 -0.005584 0.331592 
-0.230170 -0.026089 -0.303704 
-0.251468 0.003825 -0.198848 
-0.037120 0.089629 0.080330 
-0.078026 -0.078329 -0.350011 
-0.234404 0.013542 -0.261124 
-0.030663 -0.084777 -0.307893 
0.075532 0.092899 -0.159701 
0.168044 -0.064616 0.128805 
-0.224102 -0.006291 0.345459 
0.142080 -0.082011 -0.076144 
-0.087092 -0.087358 -0.133763 
0.108623 -0.055401 0.385980 
-0.041783 -0.087754 0.127719 
0.150300 0.050038 0.390101 
0.053871 0.079900 -0.336192 
-0.188978 -0.050921 0.273344 
-0.242803 0.003668 -0.158942 
0.222152 0.041564 0.378575 
0.173590 -0.079515 -0.144762 
-0.202536 -0.032301 0.389682 
-0.226914 0.014536 0.235042 
-0.200644 -0.034552 0.315481 
0.217700 -0.043236 0.213390 
0.036763 -0.046675 0.363564 
0.246900 -0.015109 0.397580 
-0.268077 -0.007136 0.376787 
-0.072636 0.065995 0.326636 
-0.156612 -0.065072 0.231683 
0.236335 -0.007865 0.324187 
-0.173166 -0.062104 -0.322067 
0.223382 -0.032974 0.395261 
0.227895 0.032887 -0.049937 
-0.088039 0.037463 0.404081 
-0.117211 -0.033594 -0.433305 
-0.254411 0.010951 -0.487796 
-0.226252 -0.005018 0.366856 
0.267616 0.004878 -0.097699 
-0.169506 0.074135 -0.106802 
-0.142623 -0.065411 0.043813 
0.152881 0.075040 -0.302439 
0.232382 -0.024488 -0.044806 
-0.051881 0.089896 -0.197075 
-0.204141 -0.053870 -0.090378 
0.133540 0.088970 -0.085312 
0.058330 0.084562 -0.289598 
-0.203561 -0.002009 0.167335 
-0.228811 -0.002356 0.056023 
0.230437 -0.023197 0.185643 
-0.054152 0.027628 0.403710 
0.086929 -0.069642 0.252105 
0.121834 0.083007 0.063171 
0.241202 -0.020891 -0.165679 
0.187654 0.060603 0.254708 
-0.233147 -0.006373 0.386492 
0.010981 0.063607 0.311470 
0.255138 0.009063 0.451085 
0.263466 -0.006395 0.127257 
-0.111747 -0.056088 0.363691 
0.021651 -0.095755 -0.162301 
-0.123528 -0.080664 -0.018120 
0.171726 0.074596 -0.039369 
-0.211798 -0.041596 -0.095563 
0.298180 -0.002596 -0.493873 
0.102215 0.038230 -0.407295 
-0.256773 0.005780 -0.176567 
-0.170300 -0.012950 -0.443235 
-0.054719 0.088479 -0.175600 
-0.017836 0.078749 0.247228 
0.186715 -0.062043 0.126442 
-0.041355 -0.062240 -0.415900 
-0.086971 -0.086885 -0.171246 
-0.175774 0.056452 0.221449 
-0.197420 -0.048459 -0.374678 
0.210379 -0.031447 -0.450228 
-0.167013 -0.074045 -0.034132 
0.059245 -0.091899 0.085590 
-0.119140 -0.066742 0.069807 
0.115265 -0.085063 -0.192010 
0.099066 0.075124 0.253079 
0.193235 -0.069000 -0.314735 
-0.229497 -0.017752 -0.355267 
0.107802 -0.073342 0.293319 
-0.202064 0.054936 -0.235829 
0.270372 -0.006717 -0.367733 
-0.119144 -0.079761 -0.054261 
-0.073568 -0.063937 0.346077 
0.173188 0.069899 -0.380454 
0.005774 -0.083348 0.229178 
0.244381 0.015072 -0.157764 
0.244426 -0.012515 0.072040 
0.237223 -0.018487 0.357230 
-0.155098 -0.067869 -0.295531 
-0.107038 -0.065655 0.145861 
0.266376 -0.005877 -0.143703 
0.036808 -0.006665 0.409205 
0.205624 -0.055409 -0.002603 
-0.183620 0.003788 0.450407 
-0.236824 -0.013769 -0.264838 
-0.060590 0.084726 -0.263481 
0.031740 0.022444 -0.427032 
-0.009726 -0.093931 0.113505 
0.052722 -0.077747 0.272507 
0.219565 0.054060 -0.228791 
-0.216368 -0.026897 0.413143 
0.095262 -0.091164 0.018241 
-0.084925 -0.085150 0.031450 
-0.176259 -0.028149 -0.443965 
0.256433 0.006888 0.031945 
0.104157 -0.048557 0.383494 
0.261386 -0.004899 0.362802 
0.300491 -0.002964 -0.434791 
0.130950 -0.084986 -0.109850 
0.023802 0.065159 0.321858 
-0.181249 -0.046167 0.053553 
-0.027615 0.079928 -0.324861 
-0.024277 0.092302 -0.153493 
0.231490 -0.027682 0.143952 
0.158975 -0.082783 -0.125880 
-0.175277 -0.017050 0.432027 
0.235626 -0.023722 -0.101674 
0.048524 -0.068637 -0.398759 
-0.265221 -0.004048 -0.058445 
-0.078771 -0.071471 0.308464 
-0.167683 -0.045959 -0.421614 
-0.247440 -0.004506 -0.040625 
0.034436 0.026986 0.379205 
0.117226 -0.072707 0.299524 
0.098029 0.079170 0.193256 
0.019905 -0.087670 -0.274583 
-0.225557 -0.004976 0.213350 
0.234242 -0.023209 0.125352 
-0.077879 -0.079481 0.080326 
-0.117012 -0.036736 0.398069 
0.070516 0.093139 0.023879 
-0.096502 -0.079746 0.009313 
-0.216380 0.008666 0.130452 
-0.061232 -0.048926 0.371670 
0.243220 -0.003645 0.077568 
0.237263 -0.024214 -0.136667 
-0.182828 -0.069138 -0.178978 
-0.013171 0.024600 -0.427167 
0.119197 0.025144 -0.441855 
-0.211423 0.015579 0.131407 
0.037744 0.066243 0.334145 
0.239690 0.046307 -0.405671 
0.191224 0.074702 -0.112566 
0.251593 -0.009341 0.426901 
0.241310 -0.029492 0.428311 
-0.178665 -0.046240 -0.429907 
0.167952 -0.064538 0.138062 
-0.245338 0.004965 0.443941 
0.202571 0.055340 -0.007733 
0.169323 -0.047493 0.408702 
0.148960 -0.070998 -0.374683 
0.010546 0.054659 0.328744 
0.158042 -0.077534 -0.061874 
0.153180 -0.042616 -0.441486 
-0.083075 -0.068191 0.213663 
0.149080 0.079757 -0.250157 
-0.004975 0.041706 0.352346 
-0.120736 -0.063404 0.337675 
0.264876 -0.009471 -0.356401 
0.125797 -0.078344 0.141286 
0.153231 -0.079590 -0.031235 
0.165313 -0.074223 0.042631 
0.160073 0.083220 -0.144480 
0.112086 0.070409 -0.407570 
0.193221 -0.069165 -0.307724 
-0.208699 0.006047 0.449615 
0.253572 0.016226 -0.251662 
0.177374 -0.043457 0.407606 
0.144385 -0.077443 -0.004108 
-0.128546 -0.069266 0.279819 
-0.078838 0.064081 0.338704 
-0.134183 -0.067260 -0.368287 
-0.123012 -0.068983 0.297425 
-0.227912 -0.012443 0.314956 
-0.051560 0.088184 0.050997 
-0.008365 -0.030790 -0.428470 
-0.022384 -0.097473 -0.081142 
-0.162955 -0.075065 -0.035233 
0.256285 0.007128 -0.397822 
-0.106843 0.080402 -0.230943 
0.085574 -0.060167 0.362465 
-0.012646 -0.017359 0.393633 
0.223131 -0.019863 -0.166051 
-0.219387 -0.042196 -0.320414 
0.162507 -0.075160 0.061373 
-0.241282 -0.000346 -0.094665 
-0.236689 0.000781 -0.366176 
0.042244 -0.033427 0.388033 
0.131545 -0.067382 -0.404434 
-0.182852 -0.049022 -0.387808 
-0.219126 0.036719 -0.268100 
-0.231127 -0.018016 -0.316233 
-0.020982 -0.093975 -0.195786 
0.248797 -0.032606 -0.455261 
0.234375 0.028054 -0.158573 
0.140929 -0.067708 0.178467 
0.089056 -0.064053 0.343590 
-0.207601 -0.050245 -0.223062 
0.014120 0.077747 0.264547 
0.120654 -0.089377 -0.047495 
0.072139 0.085212 0.140075 
0.157442 0.077486 -0.246819 
0.027191 -0.078248 -0.373327 
-0.030957 -0.095042 -0.065308 
0.130310 0.024641 -0.446146 
-0.225338 -0.032848 -0.345726 
0.075894 -0.087667 0.103783 
-0.264030 -0.004123 0.242954 
0.212323 -0.045970 0.390679 
0.201094 0.065648 -0.286269 
-0.028012 -0.042482 -0.430142 
0.041114 -0.100569 -0.100697 
0.288817 0.007818 -0.478406 
-0.186663 -0.034968 0.052937 
-0.263548 0.005961 -0.248126 
0.069783 -0.092716 0.055040 
0.092933 -0.069715 0.243357 
-0.112620 -0.064909 0.167133 
0.189843 -0.059796 0.118961 
0.041192 0.051469 0.362758 
-0.197444 -0.059205 -0.200414 
-0.024375 -0.093877 0.028174 
0.075773 -0.091289 -0.178988 
-0.039058 -0.081044 0.113445 
-0.057061 0.090700 -0.052323 
-0.229944 0.015871 0.029594 
0.013807 -0.069348 0.294298 
0.152887 0.079492 -0.247340 
0.186092 -0.063398 -0.381760 
-0.065498 -0.074975 0.214463 
0.172823 -0.001412 0.454725 
0.180885 -0.067478 -0.040309 
-0.143496 -0.069813 -0.322751 
0.249763 0.023224 -0.295145 
-0.056519 -0.090646 0.023999 
-0.023190 0.069241 -0.393002 
0.230644 -0.045386 -0.318133 
0.239573 -0.001182 0.353364 
-0.026687 0.053085 -0.410676 
0.173443 -0.071759 0.078721 
0.050066 0.088909 -0.219432 
-0.082662 -0.087048 -0.178761 
0.226614 -0.041229 -0.448251 
-0.051665 -0.046924 -0.423391 
-0.222994 0.010138 0.071459 
-0.081373 0.084976 -0.227848 
0.139780 -0.081701 -0.191096 
-0.206574 -0.043314 0.387493 
-0.260175 -0.001728 0.237344 
0.117916 -0.087060 0.010680 
-0.202358 -0.036785 0.232211 
-0.039613 -0.090176 0.094787 
0.276657 0.000589 0.489228 
-0.172160 -0.069035 -0.207711 
0.249978 -0.008404 -0.120672 
0.255266 -0.006635 0.209686 
0.135400 0.075938 -0.340536 
0.284924 0.004003 0.036384 
-0.016548 0.092725 -0.168022 
-0.095784 -0.063733 0.348947 
-0.147589 0.079363 -0.165226 
-0.075816 0.079948 -0.304813 
-0.053154 -0.084395 0.147119 
0.276081 0.005018 -0.406581 
0.213728 0.057041 -0.141432 
0.006218 0.087756 -0.242784 
0.027387 -0.056282 0.341585 
-0.145871 -0.077908 -0.078458 
-0.235884 -0.002508 0.069927 
0.028921 0.038208 0.364779 
-0.168944 -0.003883 -0.448046 
0.224218 -0.036897 0.299382 
0.195842 0.059721 0.046695 
-0.212419 0.043384 -0.111391 
0.200551 0.057741 0.339275 
0.010655 -0.095841 0.001511 
-0.125212 -0.044795 -0.422678 
-0.059976 0.064878 0.343958 
0.273447 -0.005275 -0.015842 
-0.204984 -0.030743 0.333238 
0.108611 -0.080163 0.041612 
0.091654 -0.055203 0.373592 
-0.128408 -0.082467 -0.136600 
-0.018616 0.082606 0.188469 
0.113359 -0.080670 -0.291585 
0.056281 -0.096530 -0.044478 
-0.206792 -0.054361 -0.242358 
0.107860 -0.086625 -0.007093 
-0.153878 -0.071303 0.024170 
-0.079610 -0.075611 -0.378423 
0.099670 -0.089760 -0.164694 
-0.183281 0.055649 0.319171 
0.226882 -0.036085 -0.066498 
0.134973 0.069344 0.285574 
0.080354 -0.097267 -0.065473 
0.239455 -0.010050 0.145580 
0.285360 -0.004892 -0.163089 
0.244053 -0.001836 0.090974 
0.223211 0.032799 0.340000 
0.085695 -0.092354 0.024310 
-0.094282 0.051669 -0.420447 
0.260665 -0.014452 -0.377930 
-0.112174 0.068735 0.220261 
0.227334 -0.052309 -0.372320 
0.252273 0.000888 0.437483 
-0.180835 -0.036981 -0.438134 
