-0.018144 -0.034117 0.011667 
0.005631 -0.030101 -0.104482 
0.015351 0.014231 -0.104477 
-0.042158 -0.004722 -0.091623 
0.039225 -0.009350 0.060512 
0.014125 -0.035279 0.032632 
0.035343 0.019920 0.008618 
-0.010841 0.018612 0.123920 
-0.022826 -0.031901 -0.089646 
-0.033308 -0.022871 0.097289 
-0.016907 -0.034644 -0.104462 
0.002876 0.039885 0.015080 
0.000035 0.039869 0.067951 
0.027387 -0.020906 -0.104485 
0.004816 0.043451 0.122231 
0.013325 -0.010535 0.123904 
-0.038228 0.017918 -0.048768 
0.025377 -0.029526 -0.071232 
0.022137 0.016480 0.123934 
-0.023833 -0.000614 -0.104444 
-0.042198 -0.003064 0.013414 
0.019430 0.034786 0.043938 
-0.000959 -0.038064 0.024024 
-0.011579 0.038590 -0.090797 
-0.032524 -0.023947 0.049650 
0.025234 -0.035560 -0.097488 
-0.009214 -0.037503 -0.075423 
-0.043607 -0.016843 -0.097776 
0.006881 -0.037362 -0.009178 
0.036968 0.000346 -0.104470 
-0.026015 0.031610 -0.014808 
0.035043 -0.018647 0.014923 
0.033177 0.023561 -0.043772 
0.004250 -0.041451 -0.097367 
0.031019 0.025681 0.012365 
-0.027745 -0.002858 -0.104450 
0.031789 -0.022577 0.070799 
-0.018509 0.036060 -0.056344 
-0.014762 -0.009801 -0.104453 
-0.028236 0.029976 0.064080 
-0.001046 -0.038243 -0.046327 
0.013481 0.037371 -0.029055 
0.039989 0.010370 0.116803 
0.039084 -0.009897 -0.012897 
-0.040897 -0.008938 -0.089256 
0.016563 -0.034297 0.019063 
0.035249 -0.018260 0.109303 
-0.034216 -0.022641 -0.104444 
-0.021802 0.022887 -0.104473 
-0.034155 -0.021961 0.075253 
-0.026784 0.031176 -0.065265 
-0.043234 -0.000804 -0.094664 
-0.037666 -0.012194 -0.104471 
-0.010446 0.025057 0.123959 
-0.037766 0.018609 0.095757 
-0.042089 -0.020603 -0.099743 
-0.037908 0.018261 0.116150 
0.036999 -0.015396 -0.041461 
0.017536 0.035648 0.025957 
0.006977 0.039331 0.016094 
0.039097 -0.009766 0.070129 
0.038871 0.013020 0.014118 
0.004306 0.039754 -0.044504 
0.038488 -0.011786 -0.006254 
-0.033862 0.024266 -0.042441 
0.004903 0.039674 -0.029820 
-0.006646 0.040645 -0.104307 
-0.040667 0.011668 0.100061 
-0.036804 -0.017871 0.104691 
0.040793 -0.000605 0.041611 
0.004328 0.039770 -0.010361 
-0.014443 0.037836 -0.003173 
0.005374 -0.037915 -0.091411 
-0.042344 -0.001708 -0.035841 
-0.042476 0.005039 -0.070580 
0.034149 0.021937 0.095248 
-0.030225 0.027604 0.104297 
0.012365 -0.014712 -0.104484 
-0.012703 -0.036438 -0.002462 
0.018117 0.035412 0.103130 
0.000356 0.040096 -0.058332 
-0.042085 -0.012871 0.124520 
0.009185 -0.036888 -0.013136 
0.040710 -0.002516 0.035936 
0.017829 0.035536 0.058937 
0.040835 0.004347 0.055566 
0.009489 0.038683 -0.037372 
0.002956 -0.037896 0.089371 
0.016641 0.036028 0.079944 
-0.000636 -0.038438 0.124692 
0.027929 -0.026700 0.076773 
0.036201 -0.017073 0.040714 
0.040673 0.006106 0.101671 
-0.026685 0.031018 0.067796 
0.032234 0.024356 0.063757 
0.040770 -0.002237 -0.052312 
0.009098 0.039573 -0.104450 
-0.008398 0.039147 0.061141 
0.013032 0.004210 -0.104478 
-0.008527 0.039130 0.054367 
-0.019657 -0.001399 -0.104448 
0.035311 -0.018478 -0.043745 
0.040644 -0.004387 0.039570 
0.029460 -0.025193 0.010993 
-0.009304 -0.037342 0.115391 
0.025382 0.031305 -0.071235 
-0.038538 0.016927 0.054284 
0.031689 0.016256 0.124033 
-0.041711 -0.006324 -0.037032 
-0.015001 0.037523 0.002766 
0.031894 -0.000487 -0.104473 
0.013101 -0.035852 -0.032099 
-0.036648 0.020417 0.046329 
-0.042127 0.007830 -0.064881 
0.009395 0.038740 -0.075417 
-0.038353 0.005760 0.123905 
0.026572 0.030181 0.087111 
-0.006268 -0.031065 -0.104470 
-0.031240 -0.025441 -0.044255 
0.040176 -0.005982 0.071208 
-0.005284 -0.037920 0.124503 
0.033145 0.023607 -0.038802 
0.019947 -0.032756 -0.061523 
0.036738 0.018363 0.060895 
0.030763 0.002267 0.123900 
0.031784 -0.022541 0.092725 
-0.033572 0.013507 -0.104511 
0.040858 0.003588 0.075183 
0.009708 0.031127 -0.104468 
0.010438 -0.036569 0.022384 
0.033468 0.024756 0.117587 
-0.041480 0.019697 -0.103902 
0.029715 -0.025183 -0.063108 
0.036570 -0.016418 -0.067376 
0.008423 -0.036901 0.102877 
-0.041060 -0.008389 0.028805 
0.025890 -0.029074 -0.035107 
-0.040607 0.011977 0.056353 
-0.013413 -0.036209 -0.022704 
0.039175 -0.009422 0.090390 
0.009663 0.008465 -0.104473 
0.031041 0.025853 -0.068798 
0.014409 -0.007998 -0.104484 
0.001927 0.039809 0.051739 
0.020786 0.034072 0.056048 
0.037668 0.016312 -0.004892 
0.019067 -0.035960 0.124773 
-0.039816 -0.011947 0.042959 
0.028750 -0.026355 -0.086670 
-0.014533 -0.040330 -0.097833 
0.007890 -0.037182 0.012348 
0.041013 0.002396 -0.020438 
-0.040632 -0.009746 0.038887 
-0.042437 0.003248 0.046686 
0.005240 -0.037519 -0.013483 
0.037174 0.017203 0.076391 
0.023941 -0.030424 -0.010474 
0.037241 -0.014800 -0.001115 
-0.038622 0.016966 -0.037672 
-0.009642 0.039028 -0.039785 
-0.032892 0.016974 0.124008 
0.010439 -0.030192 0.123889 
-0.031934 0.026089 0.021514 
0.040031 -0.006349 0.112459 
0.035163 -0.018410 0.065504 
0.016595 -0.017599 -0.104490 
0.025980 0.000687 0.123909 
0.040719 -0.002481 0.046345 
0.040773 0.004777 0.097048 
-0.001238 0.040086 -0.062630 
-0.044155 -0.000751 0.124114 
0.023109 -0.030830 0.060485 
-0.036777 0.020115 0.076283 
0.033506 0.022834 0.088525 
-0.013586 -0.036172 -0.055735 
-0.004315 0.043557 -0.096939 
0.029262 -0.025644 -0.050239 
-0.015115 0.037211 0.052544 
-0.034299 0.031366 -0.103513 
-0.032576 0.025078 0.106450 
-0.001188 -0.037890 0.087780 
-0.032196 0.025884 0.001333 
0.040187 0.010531 -0.093967 
0.004113 0.039794 -0.025071 
-0.042276 -0.001714 0.017522 
-0.035348 -0.020317 0.109170 
-0.030157 -0.022554 -0.104441 
-0.002671 0.039936 0.110213 
0.008997 -0.036888 0.017648 
0.010305 0.038494 -0.046009 
-0.032644 -0.028660 -0.096927 
0.041076 0.003272 -0.078275 
-0.004813 -0.000510 -0.104460 
-0.037205 -0.017428 0.114546 
0.000965 -0.037991 0.083027 
-0.028827 -0.010575 0.123772 
-0.035682 -0.020461 -0.059239 
-0.011801 0.038488 0.093312 
0.013710 -0.035390 0.069542 
0.009590 -0.037306 -0.089759 
0.032255 0.003604 -0.104471 
0.044309 -0.011212 -0.097448 
0.021435 0.033698 0.096902 
0.019984 0.034551 -0.011620 
-0.042057 0.006631 0.067153 
-0.036399 -0.019019 0.030160 
-0.003344 0.040041 0.024808 
-0.044267 -0.003195 0.119266 
-0.014386 -0.035848 -0.011003 
-0.033908 -0.022393 0.045524 
-0.033149 -0.023193 0.068660 
0.030203 -0.024371 0.020776 
0.033549 0.022912 -0.017807 
0.037561 0.016558 0.124610 
-0.034938 0.023220 -0.070601 
0.012582 0.037698 0.108680 
0.040909 0.002456 0.085910 
0.035882 0.021345 -0.095337 
0.038229 0.024530 -0.097400 
0.010639 0.038319 0.074456 
-0.000638 -0.037949 0.073546 
0.010207 0.036302 0.124159 
0.013047 0.037573 -0.066154 
0.020965 0.034006 -0.021350 
0.041497 -0.012917 -0.104275 
-0.036270 0.021251 -0.037324 
-0.000865 -0.038192 -0.067603 
-0.040882 -0.008974 -0.049179 
0.040307 -0.005962 -0.053728 
0.034998 -0.018825 -0.025010 
-0.030368 -0.026230 0.032444 
-0.003799 0.040041 -0.015394 
0.010074 -0.036581 0.035331 
-0.005288 0.039846 -0.089547 
0.005537 0.039566 -0.053465 
0.040625 -0.004197 -0.086174 
-0.040130 0.013385 -0.006160 
-0.010345 0.038804 0.049817 
-0.011135 0.038603 0.103568 
-0.036671 -0.018722 -0.001059 
-0.011665 -0.036648 0.071799 
0.015613 0.022071 -0.104474 
0.022344 0.033102 -0.045527 
0.015763 -0.037122 -0.095662 
-0.014615 0.037476 0.112117 
0.031688 -0.023006 -0.073998 
0.008740 -0.036867 0.072610 
-0.041002 -0.008589 -0.033700 
-0.021365 -0.032717 -0.055663 
0.014489 0.035974 -0.104472 
-0.023378 -0.019618 -0.104447 
0.040877 0.003730 0.046911 
0.039606 -0.007873 0.101398 
0.040982 0.002603 0.000395 
-0.027548 -0.028636 0.105641 
0.003453 -0.037633 0.027035 
0.012847 -0.020643 -0.104487 
-0.015084 0.017063 -0.104450 
0.034673 -0.019156 0.004257 
0.018221 0.007593 0.123928 
0.038055 -0.012949 -0.082418 
-0.042570 0.004552 -0.090556 
0.012885 -0.035660 0.111958 
-0.036409 0.020670 0.067813 
0.043519 0.001921 0.120547 
0.033464 0.023126 -0.070637 
-0.034390 -0.021541 0.105433 
-0.010416 0.034973 0.124265 
0.034189 0.021865 -0.022199 
-0.011015 -0.036928 -0.018803 
-0.016756 -0.035022 -0.048114 
0.031185 0.025487 0.074948 
0.024574 0.009892 -0.104477 
-0.015682 -0.035180 0.089677 
-0.024452 0.032650 0.011059 
0.001942 -0.037816 -0.010702 
0.025170 0.031466 -0.086495 
-0.023944 0.033059 0.053903 
-0.031128 -0.025577 -0.074936 
0.001199 0.030812 0.123973 
-0.019498 -0.033635 0.067871 
-0.035532 -0.020057 0.101194 
0.007685 -0.037190 0.040846 
0.016956 -0.021819 -0.104491 
-0.030716 0.027108 0.096540 
-0.029095 -0.026391 0.124139 
-0.006028 0.039639 0.000090 
-0.005968 -0.037810 0.042415 
-0.022755 -0.031806 0.064367 
0.008093 -0.037206 -0.035970 
-0.040762 -0.009354 -0.044453 
-0.031475 0.004367 -0.104479 
0.027189 0.029728 -0.032315 
-0.014038 0.037651 0.084395 
0.029253 -0.011770 0.123913 
0.012300 -0.035913 0.107459 
-0.048011 -0.001484 -0.098942 
0.027555 -0.027093 0.080897 
0.034736 0.020972 -0.028488 
-0.009395 -0.037325 0.097323 
-0.027289 0.031746 0.116810 
0.029722 0.027151 0.060014 
0.025120 -0.029541 0.006115 
0.041013 0.003303 -0.039878 
0.032160 0.024759 -0.074049 
-0.033547 -0.022979 0.011490 
0.039998 -0.006679 0.050100 
-0.039715 0.014371 0.015844 
-0.038557 -0.015156 0.000088 
-0.008386 -0.037584 0.082132 
0.008376 0.038995 -0.086809 
0.005131 -0.025796 -0.104480 
0.037446 -0.014311 0.025179 
0.039574 0.010487 0.018239 
-0.030430 -0.026030 0.096378 
-0.008895 -0.022299 -0.104464 
-0.028965 0.029728 -0.079839 
0.038814 -0.010754 0.023472 
-0.013587 0.038013 0.045360 
0.012701 -0.035969 -0.005012 
-0.003250 0.039975 0.092590 
0.037216 0.021316 -0.104414 
-0.022175 0.034193 0.017828 
0.008657 -0.037047 -0.027677 
-0.041942 0.007421 0.071107 
-0.040713 0.011907 -0.056589 
-0.031853 -0.022228 0.123849 
0.040104 0.008295 0.082693 
-0.023625 -0.031326 -0.027137 
-0.028724 0.004506 0.123872 
0.021108 0.033932 0.026893 
0.039384 0.011397 -0.062091 
-0.043345 -0.004456 -0.104423 
0.040611 -0.004477 0.067075 
0.029331 -0.025443 -0.017095 
-0.040232 0.013136 -0.020519 
-0.042413 0.000481 0.056792 
-0.012055 -0.036534 0.063122 
-0.030529 -0.026082 0.020389 
0.004700 -0.015388 -0.104476 
-0.006157 0.039559 0.057700 
-0.015751 -0.005910 -0.104451 
-0.025576 -0.030117 0.026469 
-0.038795 0.016572 -0.041694 
-0.013849 -0.035933 0.110374 
-0.002366 -0.038034 0.013312 
0.040487 -0.020760 -0.099867 
-0.013599 0.038050 0.015212 
0.040634 -0.004043 -0.081866 
-0.042423 -0.001014 -0.051845 
-0.042358 -0.001472 -0.031428 
-0.016256 0.037028 -0.023865 
0.040199 -0.006274 -0.035005 
0.020051 -0.032668 -0.033419 
-0.001138 -0.038046 0.028183 
0.045815 0.004543 -0.097573 
0.025643 -0.028951 0.098539 
-0.032814 -0.023624 0.053922 
0.028412 -0.026238 0.047715 
-0.009642 -0.013380 0.123800 
-0.035174 0.022493 0.049722 
-0.038798 -0.013979 0.112514 
-0.013020 -0.036295 0.038278 
-0.026267 0.031330 0.050493 
0.040747 -0.002406 -0.047875 
-0.042533 0.001953 0.020128 
0.041004 -0.000116 -0.067294 
0.022934 -0.035528 0.123007 
-0.015152 -0.035513 0.060022 
0.033875 -0.013525 0.124003 
-0.000403 0.039932 0.017522 
0.033072 -0.021134 0.106804 
-0.041940 -0.005248 0.026017 
-0.015432 -0.037999 0.118864 
0.029860 0.023910 0.124019 
0.041031 0.003085 -0.047792 
0.027160 0.029731 0.045949 
-0.042355 0.002257 0.089241 
-0.021761 0.034526 -0.048815 
0.000266 -0.029093 0.123844 
-0.035366 -0.021038 -0.083562 
-0.020150 0.031229 -0.104484 
-0.004973 -0.038091 -0.083226 
-0.042016 0.007940 -0.008437 
0.029738 0.027109 0.055127 
0.039438 -0.008774 -0.059671 
-0.042328 0.005432 -0.012268 
-0.018569 0.035964 0.072520 
-0.031760 -0.024891 -0.000176 
-0.018138 0.036071 0.034737 
0.009486 0.038637 0.067302 
-0.041959 0.007534 0.053262 
0.011814 -0.036889 -0.094188 
-0.003734 0.005084 -0.104459 
0.008209 -0.037039 0.050475 
0.029833 -0.020433 0.123985 
-0.031681 -0.024736 0.084008 
-0.041188 -0.007899 0.046485 
0.021956 0.037674 0.120126 
-0.014511 0.037827 -0.018995 
-0.016641 -0.035053 -0.034946 
-0.001244 -0.038260 -0.092446 
-0.017991 -0.034223 0.055427 
0.005886 -0.037587 0.116171 
-0.035924 0.021918 -0.088988 
0.017832 0.005368 -0.104483 
0.005566 -0.037606 -0.071901 
0.029952 0.026816 0.046056 
-0.027611 -0.028956 -0.028389 
0.004659 -0.004243 -0.104472 
-0.029643 0.028789 0.005025 
0.030917 -0.023616 0.015768 
0.030833 -0.023684 0.026909 
0.031097 -0.023467 -0.007608 
-0.020858 -0.032967 -0.078264 
-0.010181 0.024808 -0.104453 
-0.036927 0.023633 -0.096242 
0.038938 0.012751 0.059002 
0.027874 0.033872 0.123382 
-0.009676 0.039024 -0.081635 
-0.038579 -0.015354 -0.027733 
-0.020554 -0.036953 0.120402 
-0.042289 -0.001080 0.049512 
0.036030 -0.017351 0.022207 
0.023902 0.032199 -0.067576 
0.013544 0.037327 0.006161 
0.028889 -0.026005 -0.034598 
-0.033836 0.024318 -0.048660 
-0.035296 0.013454 0.124009 
0.024919 -0.029842 -0.063799 
0.019293 -0.033027 -0.020602 
0.020721 -0.035632 0.119506 
0.032539 -0.021786 0.064348 
-0.024675 -0.024197 -0.104447 
0.036677 0.017796 -0.043856 
-0.037357 0.019335 0.124690 
0.034156 0.019548 0.124328 
0.000059 0.044873 -0.101817 
0.009545 0.038619 0.088067 
-0.041133 -0.008058 0.056806 
-0.009015 0.039052 0.044898 
-0.029346 -0.027281 -0.022713 
-0.016682 0.007866 0.123864 
0.013338 0.037385 0.095451 
0.037959 0.015152 0.096186 
0.040880 0.003070 0.081263 
0.024235 0.031987 -0.063438 
-0.042202 -0.002871 0.029823 
-0.019185 0.035623 -0.011295 
-0.040183 -0.011181 0.019117 
0.009352 -0.039031 0.118501 
-0.036591 -0.019183 -0.088964 
0.037291 0.016826 -0.073176 
-0.002615 -0.037958 0.038580 
-0.026086 0.031455 0.075412 
0.040364 -0.005357 0.062633 
-0.040211 -0.011115 -0.068010 
0.005820 0.039542 -0.020767 
0.008072 -0.037221 -0.041925 
-0.025236 -0.030293 0.034941 
-0.004088 -0.037722 0.106328 
0.003839 -0.034623 -0.104483 
-0.004381 -0.040952 -0.104077 
-0.031905 -0.024436 0.103116 
0.024541 0.031616 0.026491 
0.022166 -0.004350 0.123936 
-0.042388 0.004697 0.017128 
-0.027738 0.030257 0.096998 
-0.033147 0.024576 0.077508 
0.040991 0.002164 0.016175 
-0.005588 0.039633 0.084570 
-0.005164 0.039761 0.033832 
0.010974 0.038289 0.002936 
0.021454 -0.031922 0.006995 
0.034826 -0.019475 -0.093403 
0.031921 -0.022374 0.102909 
0.041034 0.004249 -0.067567 
-0.029486 -0.027185 -0.070105 
0.027622 0.029378 0.013158 
0.030441 0.026219 0.026282 
0.040121 0.008864 -0.052034 
0.027327 -0.003168 0.123910 
0.007499 0.039183 0.102369 
-0.022026 0.034209 0.058062 
-0.018828 0.035844 0.054467 
0.008732 -0.036987 -0.002101 
-0.041636 -0.006034 0.108621 
-0.035292 0.022519 0.001618 
-0.002662 -0.037876 0.069695 
0.039469 0.010725 0.096414 
0.036242 0.019237 0.087278 
-0.041682 0.009179 -0.014691 
0.036258 0.018523 -0.069505 
-0.025486 -0.030112 0.055221 
0.004244 0.041162 0.118056 
-0.041872 -0.005799 -0.052591 
0.037593 0.016018 0.108470 
0.014512 0.036921 -0.010279 
0.033007 -0.021486 -0.041477 
0.006140 0.039487 -0.034733 
-0.005475 -0.042153 -0.097678 
0.029493 0.027467 0.070058 
0.040859 0.005217 0.024544 
-0.041704 0.011116 -0.094916 
0.020621 -0.032399 -0.043661 
-0.027469 -0.029093 -0.039539 
-0.009931 -0.009190 0.123799 
-0.011412 0.038580 0.077162 
0.033585 -0.020699 0.023751 
-0.042089 0.006901 0.022821 
0.037747 -0.013635 -0.029784 
-0.032703 -0.032032 -0.099620 
-0.021928 -0.032324 0.102368 
0.025040 0.031346 0.010308 
-0.008839 -0.034303 -0.104470 
-0.022901 0.014434 -0.104458 
-0.035001 0.022509 0.099206 
0.038357 -0.012201 0.077317 
-0.041535 0.022434 -0.097432 
-0.041400 -0.007074 0.060901 
0.002256 0.039807 0.040304 
0.035709 0.016398 -0.104464 
0.001714 -0.038024 0.050290 
0.034657 -0.019448 -0.085688 
0.041781 -0.006817 0.125158 
-0.022903 -0.031720 0.023546 
0.035482 0.019759 -0.040424 
-0.011379 0.038962 0.124730 
0.040797 0.004806 0.069429 
-0.038073 -0.016890 -0.082989 
0.037180 -0.014934 0.013224 
-0.003059 0.040163 -0.093295 
0.032869 -0.003260 0.123900 
-0.042500 0.002921 0.024106 
-0.032502 0.025251 0.081800 
-0.032580 -0.023991 0.017526 
0.037112 -0.015125 -0.035860 
-0.041586 -0.006739 -0.058173 
0.037664 0.016225 -0.082194 
0.039878 -0.007182 0.027292 
0.004983 0.041477 -0.104385 
0.038672 -0.011154 0.098098 
-0.042142 -0.004670 -0.062769 
-0.023855 -0.031098 0.098401 
0.034776 -0.018944 0.101351 
-0.038778 -0.014874 -0.037962 
0.018654 -0.033179 0.106342 
0.026381 0.030519 -0.038907 
-0.003224 0.040000 0.064545 
0.022420 0.038818 -0.102466 
0.000315 0.040205 -0.090605 
0.020276 -0.032395 0.092586 
0.024328 0.031874 -0.035649 
0.002934 -0.037831 -0.065900 
-0.040589 0.012122 0.011883 
-0.042410 0.005025 -0.031077 
-0.029588 0.028332 0.092184 
-0.004704 0.039852 0.020224 
-0.037161 0.019958 -0.061037 
0.005484 0.039638 0.060037 
-0.040973 0.011190 -0.043818 
-0.040891 -0.008905 0.065009 
0.020961 -0.032184 -0.007676 
0.029996 -0.024981 -0.091577 
0.033550 -0.008633 0.123903 
-0.031888 0.026762 -0.076721 
0.008460 0.019254 0.123888 
0.040549 -0.005029 -0.057710 
0.040614 -0.004310 -0.005007 
0.012297 -0.035924 0.103325 
0.002943 -0.020304 -0.104476 
-0.037606 0.000772 0.123934 
-0.033555 0.024162 0.071743 
-0.039989 0.013807 -0.031805 
0.000050 0.025854 0.123945 
0.034868 -0.018824 0.080436 
0.038806 -0.011098 0.124748 
-0.024692 -0.030753 -0.042458 
-0.019585 0.003640 -0.104447 
-0.006463 0.043618 0.122019 
0.015907 -0.034581 0.010553 
0.035944 0.019763 0.106511 
-0.025327 0.032181 -0.077241 
0.008067 0.039066 -0.082794 
0.015974 0.036290 0.001522 
0.027347 0.032248 -0.096430 
0.034666 0.020972 0.053030 
-0.034046 0.023840 0.017843 
0.041039 -0.004222 0.116532 
-0.040002 0.013736 -0.011743 
-0.003901 -0.038012 -0.002538 
0.029527 0.027243 -0.024101 
-0.020503 -0.023278 -0.104452 
0.007923 0.039090 -0.070900 
-0.042398 -0.001373 -0.056006 
0.015794 0.036676 0.124567 
-0.027667 -0.028949 -0.044707 
-0.021048 0.034891 -0.044054 
-0.002626 -0.038197 -0.053891 
0.035991 0.019776 0.115845 
0.000200 -0.038162 -0.004643 
0.028499 -0.026349 -0.009224 
-0.036679 -0.020318 -0.095427 
0.040598 0.007029 -0.001022 
0.039530 0.010740 -0.020071 
-0.015502 -0.035449 -0.015287 
0.036590 0.018645 0.081604 
-0.031997 0.026545 -0.064159 
0.018441 0.026381 0.123932 
0.040590 -0.004404 -0.076918 
0.008594 -0.036858 0.112893 
0.035207 -0.018482 -0.000672 
0.033584 0.022954 -0.088086 
-0.037626 -0.017250 -0.015771 
-0.026813 -0.029159 0.115040 
-0.007342 -0.037768 0.012972 
0.022332 0.006079 -0.104484 
-0.039118 -0.013381 0.078089 
-0.040046 -0.011642 -0.071989 
0.039755 -0.007376 0.094231 
-0.037760 0.018632 0.090581 
0.004216 -0.037614 0.073002 
0.024415 -0.029785 0.110371 
-0.027493 -0.033754 -0.103714 
-0.042423 -0.000084 0.010685 
-0.033450 0.024645 -0.026043 
0.012935 0.032046 0.123966 
-0.015952 -0.035306 -0.039642 
-0.034308 0.023934 -0.074953 
-0.029487 0.033654 0.121002 
-0.026865 0.030873 0.084018 
0.008610 -0.022071 0.123881 
-0.042185 -0.002983 0.064394 
-0.017940 0.011575 -0.104448 
0.038269 0.014862 -0.018328 
0.000039 0.044953 -0.097612 
0.009521 -0.037149 -0.062499 
0.020127 0.034492 -0.028287 
-0.027368 0.030306 0.124324 
-0.041672 -0.005955 0.095064 
0.000056 0.039897 0.036106 
-0.022983 0.033704 0.048016 
-0.014952 -0.035602 0.042757 
-0.042567 0.000112 -0.090355 
-0.037180 -0.018026 -0.022666 
-0.004809 0.039910 -0.067183 
0.032049 -0.022429 0.002298 
-0.037778 0.014032 -0.104471 
0.033988 0.022184 -0.013870 
0.029944 0.026860 -0.036311 
-0.000532 -0.037861 0.109430 
0.002153 0.040062 -0.065169 
0.040875 0.000615 0.103649 
0.021318 -0.020222 -0.104488 
0.037552 -0.015257 0.116853 
0.037595 -0.014023 -0.076865 
0.009005 0.038770 0.063053 
0.026344 0.005288 -0.104474 
0.009492 0.038700 -0.057017 
0.033674 0.022748 -0.048305 
0.023158 -0.031181 -0.092060 
0.027599 0.020111 -0.104468 
-0.040444 0.012596 -0.037537 
-0.039541 -0.012757 -0.016866 
0.022142 0.039572 -0.098308 
0.024104 -0.030390 -0.044768 
0.014169 -0.020412 0.123906 
-0.008737 -0.037554 0.047575 
-0.001513 0.039912 0.087231 
0.001938 -0.037965 -0.088316 
0.038834 -0.010641 0.083233 
-0.029527 -0.027078 0.005920 
-0.018997 -0.034872 0.124285 
0.027756 0.029151 0.093808 
0.029371 -0.025114 0.098202 
0.009069 0.012935 -0.104470 
0.025792 -0.029235 -0.075436 
-0.001074 -0.002014 0.123840 
-0.036080 -0.019791 -0.043415 
0.013746 -0.035539 -0.015536 
-0.020292 -0.027546 -0.104453 
0.026925 0.029973 -0.090213 
-0.037534 0.019147 0.027504 
0.029755 0.027139 0.066027 
0.040064 0.009294 -0.089834 
-0.034601 0.023349 -0.009335 
-0.024349 -0.030870 -0.003481 
-0.039644 0.014426 0.091744 
-0.002063 0.015430 -0.104460 
-0.040309 0.012922 -0.016264 
-0.027425 -0.028743 0.100168 
0.003611 0.039698 0.101178 
-0.000155 -0.037993 0.064193 
0.040873 0.000632 0.099536 
0.028096 -0.026472 0.102501 
0.039426 -0.008815 0.005531 
-0.036570 0.020424 0.072259 
0.037325 0.016955 0.046113 
0.040905 -0.001211 -0.074099 
0.032575 0.024058 0.047470 
-0.042410 0.004850 -0.018357 
0.038844 -0.010657 0.017556 
0.038996 0.012650 -0.027053 
-0.029269 -0.000233 0.123843 
-0.019220 -0.033719 0.042033 
-0.002194 -0.037961 0.044203 
0.038744 -0.010973 -0.038328 
-0.005386 -0.019061 -0.104466 
-0.042493 0.000295 -0.019380 
0.037587 0.016133 0.084593 
-0.000808 -0.037837 0.114065 
0.022249 -0.031397 0.075586 
0.040705 -0.003841 0.096344 
0.038803 0.012966 0.112833 
0.017999 0.040775 -0.097323 
-0.023209 0.033506 0.093668 
0.008750 0.041125 0.118414 
-0.042164 -0.003929 -0.016291 
-0.002414 -0.038134 -0.026088 
0.025206 0.031136 0.110390 
-0.005444 0.039811 -0.081147 
-0.029629 0.028361 0.072939 
0.035527 0.012248 0.124227 
-0.004271 -0.038007 -0.006676 
-0.008824 0.039096 0.035775 
-0.010080 -0.037158 0.025272 
0.035121 0.020391 -0.066020 
-0.033199 0.007478 0.123935 
0.013972 0.037120 0.058544 
0.036998 -0.015333 0.055249 
0.032977 0.023914 -0.060555 
-0.021706 -0.032476 0.054960 
-0.000852 0.034237 -0.104460 
-0.039966 0.013815 -0.001068 
-0.027234 -0.004868 0.123805 
0.026895 0.029982 -0.053010 
0.013826 -0.035628 -0.076247 
-0.004970 0.039841 -0.020534 
0.030030 -0.024390 0.107587 
0.032688 0.024003 0.023732 
-0.022703 -0.031846 0.032136 
0.038131 0.014793 0.079602 
-0.032279 -0.024115 0.078844 
0.021827 -0.000083 0.123939 
-0.013258 0.038051 0.069699 
0.000231 0.021601 0.123918 
-0.039521 -0.012970 -0.064074 
-0.042538 0.004333 -0.056850 
0.019933 -0.032600 0.064681 
0.028266 0.028605 -0.072356 
-0.033750 -0.022505 0.062204 
-0.041947 -0.005129 0.050421 
-0.042730 -0.000425 -0.104432 
-0.039928 0.013984 -0.047119 
-0.040032 -0.011675 -0.026804 
-0.040576 0.012125 0.031164 
0.008501 -0.037079 -0.022613 
-0.000710 -0.016740 -0.104471 
0.005228 0.039672 0.088538 
0.037188 -0.014973 -0.071329 
-0.041487 -0.006682 0.080039 
-0.041521 0.009348 0.074780 
0.020843 0.034024 0.075634 
-0.034923 -0.021602 -0.053567 
0.024376 0.030891 -0.104481 
-0.014442 0.037845 -0.031735 
0.018526 -0.017264 0.123926 
0.016362 0.016228 0.123921 
-0.002567 0.019514 -0.104459 
-0.021494 0.034584 0.004982 
-0.027233 -0.029384 -0.081329 
0.022069 0.018974 -0.104482 
0.011340 0.038190 0.014946 
-0.018900 -0.003105 0.123800 
-0.041107 0.010693 0.017982 
0.032312 -0.028358 0.124001 
-0.041426 0.010016 -0.068336 
0.022727 0.027079 -0.104480 
-0.021115 0.034906 -0.087404 
-0.040780 -0.009581 0.115708 
0.021265 -0.032000 0.018929 
-0.011830 0.012440 -0.104453 
0.040955 0.005379 -0.036296 
-0.043730 -0.011726 -0.104240 
0.023242 0.032464 0.047793 
0.039736 0.002109 0.124467 
-0.033463 -0.023096 0.003058 
-0.004583 0.029977 -0.104457 
-0.003061 0.040044 0.009102 
0.039820 0.009467 0.049331 
-0.026642 0.021895 -0.104495 
0.004305 0.037147 0.124297 
-0.033810 0.023837 0.085332 
0.007319 -0.037150 0.077243 
-0.023720 0.021843 0.123963 
0.039601 -0.008255 -0.086860 
0.004946 -0.037627 -0.054750 
-0.040333 -0.010713 -0.021376 
0.029038 0.007033 0.123899 
0.021327 0.033768 -0.003381 
0.015928 0.036322 -0.024456 
0.018369 -0.033418 0.030127 
0.008315 -0.037277 -0.067853 
0.002274 -0.037782 -0.000361 
-0.029639 0.020251 0.123996 
-0.033967 0.024233 -0.061304 
-0.040485 0.008631 -0.104441 
0.036468 0.018712 0.056469 
-0.008739 0.039826 -0.094283 
-0.029099 -0.027512 -0.008926 
-0.028688 0.029929 -0.088474 
-0.042303 0.003123 0.102240 
-0.038348 -0.016300 -0.058849 
-0.008319 0.039214 0.011891 
-0.010897 0.038650 0.099555 
0.013845 -0.035289 0.097346 
0.020583 0.002359 -0.104487 
-0.039572 0.011706 0.124048 
-0.029699 -0.026957 -0.048345 
0.001443 -0.037897 -0.031529 
-0.000347 0.015861 0.123884 
-0.004303 -0.014800 -0.104466 
-0.031134 -0.007210 0.123811 
0.021809 0.033498 0.071758 
-0.014669 -0.035726 0.015382 
-0.034649 -0.015260 -0.104456 
-0.046805 -0.006822 -0.098009 
-0.016207 0.036828 0.018770 
0.040446 -0.005261 0.007106 
-0.023469 0.033685 -0.090817 
0.012778 0.041504 -0.104154 
0.015167 -0.034993 -0.048436 
-0.023086 0.033687 -0.073156 
-0.042373 0.004237 0.063152 
-0.042515 0.000152 -0.046315 
0.011084 0.000140 -0.104477 
0.026144 -0.028807 0.002213 
0.026688 -0.014978 -0.104483 
0.029995 -0.012363 -0.104480 
0.014333 0.028033 0.123932 
-0.026171 -0.029799 0.017409 
-0.003026 0.042812 -0.104049 
-0.030286 -0.026284 0.062054 
-0.024379 -0.031016 -0.085621 
0.003526 0.008285 0.123862 
0.027346 -0.029232 -0.095845 
0.037817 0.016019 -0.023953 
0.026892 -0.028006 0.030752 
-0.041058 -0.003450 0.124483 
-0.037084 -0.017935 0.021141 
0.021559 0.033623 0.016536 
0.010715 0.040683 -0.095963 
-0.019065 0.035756 -0.052042 
0.013117 -0.035746 0.016643 
-0.039140 0.015809 -0.058193 
0.038946 -0.010332 -0.033653 
0.040960 -0.000733 -0.079160 
-0.037794 0.025386 0.123036 
0.023934 -0.030468 -0.025950 
0.038349 0.014353 0.054560 
-0.011240 -0.036962 -0.090655 
0.012552 -0.035934 0.044352 
-0.002218 -0.038029 0.017660 
0.037736 -0.013636 0.059387 
0.014046 -0.035214 0.092575 
-0.020083 0.038979 0.119788 
-0.013816 -0.022004 0.123780 
0.006730 0.039401 -0.015004 
0.024845 0.031353 0.069418 
0.013325 0.043030 -0.098957 
-0.042378 0.000844 0.093389 
-0.042635 0.002201 -0.023458 
-0.035412 0.021933 0.105081 
0.033487 0.023068 -0.056260 
-0.001855 -0.020979 -0.104471 
0.018789 -0.033340 -0.069730 
-0.022391 0.033929 0.107829 
0.038493 -0.011769 0.035643 
-0.037162 -0.017439 0.077554 
-0.010205 0.038883 0.000441 
-0.031112 0.027321 -0.028615 
-0.022050 0.034318 -0.017586 
0.038973 0.012783 -0.080479 
0.013463 0.037347 0.037463 
-0.040801 0.011664 -0.051491 
-0.041083 0.010561 0.080657 
0.034304 -0.019828 -0.060282 
-0.021647 -0.032508 0.082144 
-0.040361 -0.010622 -0.007891 
-0.030529 0.028161 -0.051351 
-0.042402 0.001826 0.074390 
0.034350 -0.019573 0.069900 
0.025961 0.011491 0.123901 
-0.009378 -0.037564 0.124347 
0.039656 0.010240 -0.015053 
0.040063 -0.002206 -0.104470 
0.030600 -0.024009 -0.012353 
0.039495 0.010994 -0.075535 
0.009937 0.038623 -0.090764 
-0.040094 0.025376 -0.101589 
-0.009977 -0.037140 0.110819 
-0.016894 -0.034954 -0.024586 
0.007676 0.039138 0.024319 
0.001980 0.039782 0.079655 
-0.038428 0.017103 0.104851 
0.022423 -0.031213 0.099958 
-0.013346 0.038118 -0.064449 
0.023915 0.032114 -0.030330 
0.004435 0.039727 -0.057843 
0.012754 -0.037694 -0.104465 
-0.035505 -0.020483 0.005363 
0.004887 -0.037455 0.034620 
0.016746 0.035986 0.084460 
0.031588 0.025341 -0.081007 
-0.045567 0.015679 -0.101014 
-0.041560 -0.006826 -0.085029 
-0.013592 0.038054 -0.013982 
-0.020646 -0.033054 -0.050414 
-0.003002 -0.039048 0.117660 
-0.018365 0.028476 0.123995 
0.040697 0.006686 0.003912 
-0.036444 0.020998 -0.041987 
0.040661 -0.003656 0.025364 
-0.035184 0.022296 0.095127 
0.002357 -0.037874 -0.061486 
-0.009446 -0.004138 0.123802 
0.040775 -0.001250 0.060745 
0.034869 -0.018843 0.045109 
0.038163 0.015397 0.116669 
0.012445 -0.035889 0.088749 
0.000203 -0.038129 -0.016473 
0.030305 -0.024184 0.061807 
-0.037300 -0.017779 -0.011707 
0.040907 0.000385 0.031881 
0.027796 0.029089 0.114000 
-0.007907 0.020353 -0.104455 
-0.012882 0.038232 -0.058416 
-0.039431 0.014942 0.059159 
-0.000228 0.039960 -0.020512 
-0.019994 -0.037512 -0.103870 
-0.043333 0.005808 -0.104411 
-0.035838 0.021665 0.021670 
0.025998 -0.025193 -0.104479 
0.007661 -0.022550 -0.104482 
0.005580 -0.030492 0.123868 
0.040093 0.016306 -0.104435 
0.040684 -0.002580 0.003113 
0.040191 0.008557 -0.038743 
0.040854 -0.001042 -0.028265 
-0.017608 0.036371 -0.028925 
0.030726 -0.023707 0.075106 
-0.008143 -0.037783 -0.034559 
0.001549 0.039786 0.093150 
-0.023297 0.012055 0.123902 
-0.042312 -0.001737 -0.012605 
0.040705 -0.002265 0.015536 
-0.021916 -0.032363 -0.039490 
-0.025059 -0.030341 0.061226 
-0.005623 -0.021202 0.123817 
0.030688 0.026173 -0.057065 
-0.020754 0.007033 0.123866 
0.040862 0.000479 0.068609 
0.024335 0.031767 0.014238 
-0.012280 0.038380 -0.051660 
-0.033546 0.024274 0.044542 
-0.022762 0.033776 0.077736 
0.040632 -0.004520 0.030710 
-0.043748 0.000729 0.117969 
0.024313 -0.030015 0.048149 
0.012339 0.037870 -0.052657 
0.025749 0.024628 0.123899 
0.013888 -0.015559 0.123906 
-0.012008 -0.036680 -0.038813 
-0.040872 -0.008988 0.023177 
0.021726 0.033563 -0.086759 
0.024524 0.031613 0.105369 
-0.042237 -0.002473 -0.002613 
0.032009 0.024854 -0.051301 
0.020588 -0.032530 0.116595 
-0.015965 -0.036245 -0.095266 
0.032918 -0.021464 0.019819 
-0.034917 -0.021028 0.080026 
0.010817 0.038282 0.052385 
-0.040002 -0.011627 0.014897 
-0.040084 -0.011295 0.059642 
0.006494 0.039463 0.039529 
0.001307 -0.016880 0.123849 
0.004513 -0.039206 -0.104463 
-0.041878 -0.005436 0.035607 
0.027650 0.001457 -0.104475 
-0.020209 -0.035471 -0.096196 
-0.009890 -0.037309 -0.070046 
-0.042253 -0.001353 0.106943 
0.006920 0.028185 -0.104466 
-0.042174 -0.003755 -0.020407 
0.013220 0.037496 -0.058168 
-0.015110 -0.035650 -0.091197 
0.009174 0.038726 0.007797 
-0.024617 -0.019179 0.123732 
-0.003518 0.037228 -0.104458 
0.007093 0.039299 0.011599 
0.040506 0.007747 -0.065347 
0.032407 -0.021862 0.098618 
0.009533 -0.034715 0.124281 
-0.006263 0.039604 -0.006164 
-0.018969 -0.033941 -0.044601 
0.038795 0.013362 -0.070800 
-0.009237 -0.037424 0.009466 
-0.028128 0.030137 0.012666 
0.026150 -0.028558 0.105987 
0.007865 -0.037067 0.088884 
0.002958 -0.037862 0.077032 
-0.015400 -0.035273 0.070631 
0.036316 0.018441 -0.079084 
0.006165 0.039532 0.051692 
-0.030074 0.018329 -0.104505 
-0.036901 0.020201 -0.005330 
0.008315 -0.037372 -0.083857 
-0.020344 -0.033190 -0.034742 
-0.041697 0.008964 0.039864 
-0.016223 0.038617 0.117853 
-0.042667 0.002797 -0.042436 
0.045189 0.003619 -0.102785 
0.012505 -0.035965 0.038679 
0.036748 -0.010363 -0.104475 
0.034784 -0.019067 -0.013909 
0.036955 -0.015447 0.034598 
-0.024434 -0.030742 0.039716 
0.040871 -0.000037 0.027749 
0.038714 -0.011070 0.028029 
0.008979 -0.037261 -0.073983 
0.026525 0.030379 -0.027666 
0.031261 0.025384 0.036034 
0.003994 0.039803 -0.039151 
0.040123 -0.006577 -0.045609 
0.001343 0.040831 0.124773 
-0.027239 0.030666 0.054619 
-0.035102 0.022354 0.109497 
-0.006114 0.039518 0.102911 
0.018822 0.035042 0.107121 
-0.038191 0.017622 0.109950 
0.036056 -0.017233 0.049954 
0.023660 -0.030787 -0.078607 
-0.018844 0.024155 0.123969 
0.038463 -0.011869 0.093668 
0.027334 0.029556 0.063490 
0.031776 -0.029028 -0.097019 
-0.020675 0.035086 -0.079464 
-0.026829 -0.029205 0.093550 
-0.036150 0.021141 0.041813 
0.031296 -0.023394 -0.059896 
-0.036409 -0.019389 -0.070185 
0.037607 -0.021496 0.122797 
-0.040229 -0.023108 -0.102826 
0.040297 -0.005767 0.011749 
0.026271 -0.028835 -0.051565 
-0.006184 -0.038018 -0.093258 
-0.026745 0.031216 -0.073519 
-0.039362 0.015139 0.027030 
-0.020465 0.035047 0.065431 
-0.047241 0.010470 -0.099865 
0.035275 0.020056 -0.008652 
-0.039889 0.014112 -0.078698 
-0.035454 -0.020247 0.087294 
-0.005724 0.039604 0.088639 
0.001632 -0.037936 0.011987 
-0.033161 0.026807 0.117878 
-0.041811 -0.005472 0.089196 
0.027134 0.029717 0.072850 
0.033378 -0.021052 -0.068035 
-0.041924 0.008372 0.014735 
-0.023814 0.033110 -0.022449 
-0.037886 -0.016353 0.054873 
0.008142 0.039009 0.035575 
0.012389 -0.004184 -0.104480 
-0.000358 -0.038062 0.034629 
-0.037500 -0.017042 0.049952 
-0.036350 -0.019174 0.009370 
0.039898 0.009785 -0.085161 
0.040987 0.013961 -0.096397 
0.011816 -0.025668 -0.104487 
0.007329 -0.037140 0.082108 
-0.023088 -0.033692 -0.104445 
0.015697 -0.034647 0.023108 
-0.042636 0.001080 -0.079388 
0.009114 0.038740 0.056491 
0.038191 0.014899 0.019032 
0.040002 0.008792 0.035614 
0.030179 -0.024577 -0.040347 
0.041007 0.000759 -0.010119 
0.030113 -0.024409 0.051688 
-0.005373 -0.016858 0.123819 
0.040143 -0.006193 0.044722 
0.039350 -0.009056 0.013862 
-0.010976 0.038697 0.007646 
-0.040279 -0.010903 -0.082749 
0.021261 0.033927 -0.091243 
0.040805 -0.001483 0.113456 
0.024222 -0.032322 0.118299 
0.026041 0.030692 0.031905 
0.032567 0.024334 -0.064613 
0.034782 0.020929 -0.052366 
-0.041623 -0.006116 0.099197 
-0.000251 -0.037915 0.093053 
-0.042065 0.006451 0.081344 
-0.025788 0.031696 0.024957 
0.002931 -0.037819 0.059328 
-0.033663 0.024459 -0.037213 
-0.005315 -0.037717 0.088560 
-0.038502 -0.018877 -0.104419 
0.040099 0.008768 -0.027534 
0.014109 -0.039641 0.122485 
0.008885 0.042854 0.122711 
0.038117 -0.006556 -0.104473 
-0.041867 0.007661 0.105359 
0.032982 -0.022954 0.124258 
0.039487 -0.008618 -0.079651 
0.040973 0.002409 0.020593 
-0.006956 -0.037808 0.005674 
-0.029398 0.029207 -0.013497 
-0.042255 -0.001342 0.101722 
-0.028754 -0.006751 -0.104448 
0.040440 -0.005527 -0.062331 
-0.000635 -0.037999 0.054402 
0.034141 -0.019895 0.034255 
-0.037787 -0.017263 -0.066032 
0.039022 0.012502 0.030183 
0.001593 -0.005011 0.123852 
-0.040032 -0.011523 0.026221 
0.037705 0.016190 0.001771 
-0.034035 0.023667 0.066494 
0.020309 -0.032603 -0.081672 
0.034838 0.001454 0.124036 
-0.009562 0.039052 -0.077378 
-0.003970 0.039938 0.069474 
0.004679 0.039696 -0.048487 
0.015307 0.036614 -0.081551 
-0.026361 -0.029757 -0.015652 
0.007289 0.039246 -0.001524 
-0.033420 -0.023248 -0.030301 
0.037746 -0.013631 -0.011659 
-0.012759 0.038261 -0.037191 
-0.029388 0.029016 0.114215 
0.014961 0.036710 0.054569 
-0.003131 -0.037905 0.050952 
0.040723 -0.001856 0.020332 
-0.011046 -0.036825 0.091854 
0.009723 0.038573 0.042383 
0.008648 0.038866 0.092907 
0.020057 -0.030901 0.124134 
-0.032267 0.026007 -0.032859 
0.028908 0.028072 0.050649 
-0.010789 0.000185 0.123806 
-0.030592 -0.026013 0.028228 
-0.007628 -0.037863 -0.061706 
-0.013210 -0.036317 -0.067255 
0.033490 -0.020856 -0.010331 
0.042972 0.017992 -0.101625 
0.040630 0.007417 -0.074126 
-0.013835 -0.036211 0.124115 
0.034376 0.021572 -0.033689 
-0.041829 -0.013038 -0.096398 
0.010422 -0.037102 -0.077847 
-0.038630 0.016698 0.072594 
0.027789 -0.027270 -0.042414 
-0.011043 0.040093 0.117528 
-0.042391 0.003927 0.059019 
-0.019809 -0.033864 -0.092549 
0.037360 0.016677 0.090975 
0.006274 -0.037462 -0.031929 
-0.020213 -0.033280 0.000813 
0.039876 -0.006996 0.081758 
-0.039156 -0.014233 -0.086017 
0.040716 -0.003376 0.087475 
0.003447 0.039858 -0.086779 
-0.017544 0.036304 0.044483 
0.039298 -0.009217 -0.027550 
0.044331 0.014186 -0.098911 
-0.008539 0.039161 0.023722 
0.027322 0.029516 0.100979 
0.038833 0.013253 -0.087743 
-0.004578 -0.038015 -0.015571 
0.039395 0.011052 0.077488 
-0.028709 0.029845 -0.046940 
0.040742 -0.002076 -0.022719 
0.040876 0.003819 0.042725 
0.024101 -0.030072 0.084411 
-0.042338 -0.002236 -0.067011 
0.038462 0.014155 0.034376 
-0.028699 -0.027875 0.025191 
0.023706 0.032298 -0.057555 
-0.018770 -0.033842 -0.011890 
0.006769 0.033253 0.124083 
-0.021952 -0.032329 0.010288 
-0.042271 0.006046 -0.022384 
0.003154 -0.037670 0.005049 
-0.001215 0.039887 0.101494 
0.015409 0.036535 0.088723 
0.003868 0.039716 0.070500 
0.005205 0.039594 -0.090785 
-0.030606 0.028104 -0.055720 
-0.043273 0.015943 -0.104409 
0.003266 0.021815 -0.104464 
0.008696 0.038854 0.079014 
-0.020367 -0.033193 -0.023400 
0.042023 -0.007857 -0.104407 
0.018581 -0.026188 0.123925 
-0.011195 0.038608 0.087884 
-0.032702 0.024166 0.124325 
0.008698 -0.039572 -0.104404 
0.036398 -0.016796 -0.031980 
0.036386 0.018263 -0.035042 
-0.014654 0.037751 -0.007386 
-0.017663 0.034895 -0.104480 
0.024518 -0.029924 0.026588 
0.013133 0.039273 0.117980 
-0.047284 -0.006739 -0.102058 
-0.002678 0.012424 0.123867 
0.021937 -0.031673 0.014507 
-0.035149 -0.021239 -0.049323 
0.026572 0.030222 0.057083 
-0.015005 -0.000894 0.123807 
0.025899 -0.028783 0.092830 
-0.022500 -0.031981 0.006258 
0.032990 -0.021313 0.059077 
-0.030656 0.027520 0.017803 
-0.010105 0.038780 0.113125 
0.010007 -0.036507 0.093396 
0.036626 -0.016189 0.077333 
-0.042086 0.006248 0.088000 
-0.029227 0.029363 -0.007546 
0.019716 -0.008086 0.123933 
-0.007448 -0.037843 -0.039926 
-0.004597 0.039855 0.038474 
-0.025509 0.032031 -0.061451 
-0.007439 0.035851 -0.104455 
-0.011758 -0.036612 0.084939 
0.027938 -0.026674 0.085059 
0.004437 0.039770 0.019230 
0.038690 0.013609 0.026032 
0.013011 0.037553 0.010771 
0.024171 0.031947 -0.024702 
-0.018254 0.040246 0.124144 
-0.040397 0.012546 0.062538 
-0.042221 0.006100 0.002470 
-0.002830 0.008981 -0.104460 
0.040430 0.007700 -0.022558 
-0.004048 -0.038027 -0.010696 
0.040053 -0.006749 -0.024446 
-0.038370 -0.015538 0.017237 
0.005382 -0.037451 0.094414 
0.014628 -0.028426 0.123907 
-0.045024 0.003726 0.120719 
0.027340 -0.027960 -0.092035 
-0.020245 0.040759 -0.103290 
-0.030629 0.027438 0.033937 
0.000228 -0.037904 0.104988 
-0.030558 0.028038 -0.038643 
0.030874 0.025837 0.006886 
-0.027966 -0.014631 -0.104442 
-0.004278 0.039990 -0.053415 
-0.035024 -0.021290 -0.012764 
-0.027215 0.030623 0.107437 
-0.002697 0.028935 0.123969 
-0.032214 0.025928 -0.013056 
-0.042597 -0.000051 0.113925 
0.002179 0.040044 -0.034948 
0.003171 -0.037780 -0.051164 
0.039730 0.009834 0.040851 
-0.000452 -0.038174 -0.085011 
0.005750 0.039620 0.097530 
0.020589 0.034231 -0.065363 
-0.042498 0.001851 0.035222 
-0.039895 0.013868 0.078648 
-0.041149 0.010622 0.003755 
-0.010134 0.038853 0.039706 
-0.004452 -0.037729 0.097613 
-0.036293 0.021243 -0.047406 
0.008631 -0.009939 0.123883 
0.028314 0.028567 -0.076510 
-0.032883 -0.023806 -0.025735 
-0.039951 -0.011622 0.049755 
-0.040548 -0.009997 0.102200 
-0.018660 -0.033889 -0.019536 
0.002720 -0.037880 -0.080780 
-0.009609 -0.037368 -0.056503 
-0.040595 0.011841 0.109379 
-0.004135 -0.037828 0.064783 
-0.000507 0.039925 0.030216 
-0.035717 -0.019902 0.071874 
0.040903 0.005389 -0.004883 
0.009471 0.038640 0.083197 
0.039427 0.011046 0.022792 
-0.030166 0.028708 -0.068669 
0.018339 0.031563 -0.104475 
-0.005354 -0.037659 0.110465 
0.014210 0.009552 -0.104477 
-0.005508 -0.037995 -0.046219 
-0.041464 -0.008714 -0.093904 
-0.041997 -0.005308 -0.042664 
-0.041761 -0.006184 -0.067524 
0.014083 -0.035507 -0.071390 
-0.021733 0.009286 -0.104448 
-0.013730 -0.036018 0.075255 
0.029504 -0.025186 -0.000426 
0.004827 -0.035424 0.124303 
-0.039673 -0.013521 0.116833 
-0.014175 -0.000818 -0.104452 
-0.015444 -0.029729 -0.104460 
0.021013 -0.032223 -0.057542 
-0.025920 0.032272 -0.093721 
-0.034637 -0.029690 -0.102453 
-0.001306 -0.038243 -0.080707 
0.011245 0.038238 -0.012792 
0.040500 0.010552 0.124721 
0.004141 -0.037580 0.055294 
0.008312 -0.007248 -0.104477 
-0.014922 -0.029489 0.123777 
0.026210 0.030679 -0.048631 
-0.009992 0.038927 -0.004728 
0.018315 -0.021950 0.123924 
0.014137 -0.030171 -0.104491 
-0.041686 -0.006272 -0.000724 
0.009905 0.029265 0.123948 
-0.039864 -0.012088 -0.031451 
-0.046082 -0.012046 -0.098232 
-0.041177 0.010269 0.089282 
-0.008287 -0.037551 0.105389 
0.034734 0.020897 0.027270 
-0.009946 -0.038189 -0.095414 
0.026863 0.029992 -0.059132 
-0.041753 0.009028 -0.029552 
0.002719 -0.037880 0.067096 
0.040845 0.003279 0.106828 
0.003793 0.039815 -0.071584 
0.032238 -0.022218 0.006755 
-0.030306 0.027590 0.085177 
-0.024497 -0.036154 -0.097217 
0.039681 -0.007990 -0.007459 
0.021007 -0.032089 0.049220 
-0.010864 0.043934 -0.102127 
0.039595 0.010295 0.069058 
0.005720 -0.039402 0.124719 
-0.000407 0.040158 -0.079965 
-0.025716 -0.030106 -0.007815 
-0.016683 -0.035061 -0.064733 
0.028389 0.028439 -0.003787 
-0.036648 0.020264 0.084482 
-0.037537 0.028997 -0.101944 
-0.006308 0.039576 0.015548 
-0.027601 -0.028773 0.041289 
0.036678 -0.016099 0.030612 
-0.012683 -0.042016 -0.101367 
0.025250 0.031133 0.051237 
-0.012580 -0.036394 0.055781 
0.029166 -0.025582 -0.004521 
0.016193 -0.034498 -0.010644 
0.004601 0.039653 0.108106 
-0.009167 0.038996 0.071010 
-0.022814 -0.031785 -0.011514 
0.007827 0.022806 -0.104467 
0.028115 -0.026509 0.072558 
0.011957 0.038020 -0.024287 
-0.036456 -0.028133 -0.098058 
-0.022795 0.033889 -0.005960 
-0.020389 -0.006010 -0.104447 
-0.007933 -0.037647 0.063014 
-0.024574 -0.030643 0.084759 
-0.029399 -0.027132 0.087483 
0.004519 0.027837 0.123949 
-0.038613 0.004738 -0.104463 
0.010822 -0.036311 0.084665 
0.030572 -0.023855 0.084001 
-0.036175 0.021361 -0.025121 
0.023708 -0.030641 -0.031208 
-0.017165 0.036521 -0.014930 
-0.031666 0.026120 0.088750 
0.019699 -0.032687 0.087042 
-0.022248 0.034145 0.022715 
0.020989 0.033963 -0.049590 
0.031735 0.024997 0.002130 
-0.035672 -0.020352 -0.027033 
-0.021023 -0.032893 -0.060122 
-0.036357 -0.026349 -0.103857 
0.008643 -0.036899 0.068278 
0.017979 -0.033600 0.038751 
0.017072 0.038635 0.118790 
-0.031569 -0.024772 0.110214 
-0.041751 -0.005613 0.116067 
-0.031506 -0.025216 -0.086436 
0.040445 0.007443 0.008671 
0.011194 0.025122 -0.104470 
-0.042080 -0.005022 -0.046742 
-0.042183 0.005647 0.076693 
0.031662 -0.022910 -0.032596 
0.023212 -0.030648 0.104068 
0.040934 -0.018480 -0.103582 
-0.004551 -0.038050 -0.036960 
0.034693 -0.027331 -0.103485 
-0.042311 -0.000341 0.082630 
0.039189 0.011859 0.073164 
-0.038189 0.017933 -0.019977 
-0.041891 0.008160 0.048590 
0.033310 0.026816 -0.104320 
0.035381 -0.018080 0.093326 
0.039274 0.018581 0.119459 
0.007628 -0.037184 0.046355 
-0.029559 0.028654 0.037627 
0.011268 -0.036597 -0.009386 
-0.015298 0.035670 0.124335 
0.008492 -0.005410 0.123883 
-0.019251 -0.013708 -0.104449 
-0.009480 0.039071 -0.067036 
-0.038259 0.017910 -0.072257 
0.011930 0.038029 -0.019801 
0.012615 -0.036134 -0.067549 
-0.040301 0.013028 -0.065527 
0.027752 -0.026865 0.089467 
-0.007104 0.039364 0.078254 
0.040567 -0.015621 0.123972 
-0.006153 -0.037842 0.021382 
-0.039818 -0.011725 0.107637 
0.036332 0.019216 0.099379 
0.027501 -0.027339 0.025691 
-0.002230 -0.037922 0.058552 
-0.031781 -0.030097 0.123715 
-0.042006 0.008498 -0.089924 
-0.042287 -0.001964 -0.008008 
0.035841 -0.017483 0.059267 
0.028405 0.015327 -0.104468 
0.030748 0.026109 0.097883 
-0.009987 0.029120 -0.104453 
-0.003421 -0.038082 -0.022214 
-0.003674 0.040086 -0.042818 
-0.018179 -0.018548 -0.104452 
0.036833 0.017606 -0.090103 
0.010878 -0.010648 -0.104481 
0.040551 -0.004769 -0.068155 
0.037902 0.015529 0.041102 
-0.041774 0.008436 0.097134 
-0.026442 -0.029590 0.045907 
0.039679 -0.007846 0.036101 
-0.040342 0.015209 0.117395 
0.040746 -0.002462 0.082706 
0.027460 -0.027708 -0.060566 
0.036274 -0.017104 -0.057163 
-0.030805 0.028248 0.124635 
0.020838 -0.032272 -0.028573 
-0.020913 0.034746 0.100524 
-0.031423 0.026456 0.068900 
-0.041909 0.008081 0.043866 
-0.022569 0.033888 0.073390 
0.039486 -0.008386 0.074605 
-0.031823 -0.026764 -0.104441 
-0.040136 0.013344 0.007733 
-0.018171 -0.034538 -0.082145 
0.023198 -0.030970 -0.019554 
0.033736 0.022528 0.104320 
-0.001933 0.039970 0.041716 
-0.015440 0.037122 0.075305 
0.017604 -0.011670 0.123923 
0.024398 -0.025196 0.123933 
-0.010191 0.038856 0.027353 
-0.040257 -0.010950 -0.003633 
-0.017429 0.036319 0.024406 
-0.033031 0.025293 -0.057257 
0.040187 0.007965 0.086785 
0.024128 0.032222 -0.093801 
0.031373 0.025386 -0.010862 
0.008831 -0.036986 -0.017411 
0.037923 0.015824 -0.040271 
-0.041228 -0.008511 -0.104448 
0.012843 0.037597 0.070603 
-0.038568 -0.015049 0.008263 
0.028441 0.011139 -0.104470 
-0.042433 0.002902 0.051502 
0.007581 0.039169 -0.066894 
-0.042766 0.002543 -0.083712 
0.040848 0.004046 0.059790 
0.000446 -0.038025 -0.037887 
-0.029451 0.028686 0.050807 
-0.035206 -0.020995 -0.008599 
0.007224 0.039262 0.029614 
-0.042659 0.003611 -0.075685 
0.015261 -0.034900 -0.021813 
0.022183 -0.031567 0.002682 
-0.027134 0.034835 -0.096676 
-0.042228 -0.002041 0.077596 
-0.038426 -0.015851 -0.033564 
-0.025499 -0.030206 0.003868 
-0.008345 0.039279 -0.052933 
0.004041 0.016498 0.123880 
0.034128 0.027219 -0.096866 
-0.024424 -0.030977 -0.078784 
0.039828 0.009306 0.110100 
0.032814 -0.017511 0.124093 
0.010276 0.038610 0.115243 
-0.035624 -0.020260 0.015992 
-0.006185 0.014440 0.123886 
-0.041381 0.010160 -0.080851 
-0.041068 -0.008377 -0.029112 
0.025915 -0.028993 -0.006576 
-0.001221 -0.037912 0.078803 
0.003834 -0.037670 -0.025634 
-0.000991 -0.038109 0.006147 
-0.030239 -0.026455 -0.079606 
0.033331 0.011625 -0.104467 
-0.033088 -0.000350 -0.104476 
0.040389 0.022798 -0.101903 
0.038359 -0.012192 -0.016147 
-0.042147 -0.004099 0.009067 
-0.041625 -0.006417 0.019469 
-0.004918 -0.012860 0.123821 
-0.029728 -0.030233 -0.104325 
-0.006533 0.036922 0.124372 
0.028421 0.027797 0.124139 
0.039366 -0.009005 -0.002851 
-0.038045 0.018044 0.063625 
-0.027721 -0.033233 0.120477 
-0.007718 -0.037649 0.072128 
-0.022719 -0.031833 0.043732 
0.003908 -0.037580 0.039003 
0.037735 -0.006072 0.124216 
0.022984 0.007884 0.123927 
0.033311 -0.021025 0.029786 
-0.017898 0.036180 0.049467 
-0.000959 0.004028 0.123842 
-0.004181 -0.038111 -0.058479 
-0.001350 -0.038261 -0.076045 
-0.030496 -0.026157 -0.029007 
-0.004732 0.039800 0.074204 
0.004285 0.023839 0.123925 
-0.042150 -0.003741 0.057899 
0.027891 -0.031850 0.123996 
-0.007302 -0.043118 -0.102151 
0.038610 -0.011397 -0.042787 
-0.008617 -0.037580 0.067416 
-0.002702 -0.028854 -0.104473 
-0.027205 0.030835 -0.031800 
0.021259 0.033773 0.113398 
-0.032497 -0.024211 -0.049779 
-0.024564 -0.030840 -0.049574 
0.016608 -0.034397 -0.053177 
-0.011144 -0.036931 -0.047858 
0.024319 0.022542 -0.104480 
-0.026635 0.009290 0.123891 
-0.031125 0.026790 0.064882 
-0.005792 -0.025216 0.123816 
-0.034374 -0.022053 -0.001601 
0.006593 0.040740 -0.095450 
-0.039921 -0.011819 0.010817 
-0.037714 -0.018619 0.124888 
0.038950 0.012827 -0.050061 
-0.042483 0.002921 0.031174 
-0.005274 0.001835 0.123822 
0.015801 0.040770 0.123435 
0.039327 0.011289 0.090584 
-0.042161 -0.003435 0.071090 
0.040321 0.007949 -0.009153 
-0.022121 0.034295 -0.027133 
-0.028954 -0.027645 0.001968 
-0.014166 -0.035798 0.098300 
0.013883 0.031155 -0.104471 
-0.033959 -0.022020 0.113273 
0.038252 0.014531 0.069996 
-0.032213 0.025685 0.049073 
0.023052 -0.030946 0.030669 
-0.004582 -0.038129 -0.089347 
0.035146 -0.018405 0.114121 
0.013491 0.037368 -0.033997 
-0.042387 0.002997 0.069430 
-0.021195 -0.032817 -0.015377 
0.001659 0.039798 0.075542 
-0.002992 -0.008350 0.123831 
0.031308 0.025430 -0.002761 
-0.042499 0.003946 0.012046 
-0.005637 0.039741 -0.038194 
-0.021281 0.034639 0.043193 
0.032477 0.028810 0.120126 
-0.038548 0.017082 -0.015982 
0.012683 -0.036041 -0.036105 
0.017015 -0.034109 0.014776 
0.037011 0.017254 -0.049273 
0.016937 0.035910 0.092628 
0.003171 -0.001072 0.123859 
-0.008252 -0.037769 -0.066400 
0.004462 -0.037669 0.110609 
0.044942 0.009564 -0.097328 
-0.014263 -0.035847 0.047295 
0.028863 -0.025667 0.093977 
-0.032943 -0.002475 0.123860 
-0.008063 0.009438 -0.104456 
-0.038573 0.016988 -0.003457 
0.038167 0.008027 -0.104466 
0.016979 0.035894 0.097312 
0.001153 0.039867 0.022359 
-0.010319 0.038865 -0.071588 
-0.036884 0.019860 0.101800 
-0.019617 0.035459 0.095918 
0.040881 -0.001291 -0.063087 
-0.034192 0.023514 0.062451 
0.016985 0.035874 -0.032469 
-0.007000 -0.033943 0.123951 
0.018793 0.024759 -0.104477 
0.033245 0.023248 0.099279 
0.039094 -0.009864 0.001546 
-0.042439 0.004411 0.007865 
0.040750 0.006284 0.039286 
-0.032046 0.026355 -0.045477 
-0.009359 -0.039890 -0.104474 
0.034241 -0.022920 -0.104309 
0.032264 0.024356 0.051555 
-0.025874 -0.029133 -0.104449 
-0.034065 -0.022690 -0.070913 
-0.013013 -0.036361 -0.032467 
0.033820 0.022388 0.037600 
0.036993 -0.015331 0.096339 
-0.029610 0.036244 -0.099775 
-0.038978 -0.013997 -0.006169 
0.038572 0.014063 -0.036478 
-0.041957 0.006976 0.110113 
0.033317 0.023243 0.019091 
0.035889 -0.019132 -0.104403 
0.027670 -0.034502 -0.101359 
0.010719 -0.039268 0.124640 
0.037104 -0.015109 0.017252 
-0.029541 -0.014945 0.123746 
0.036684 0.018391 0.050061 
